# .PCD v.7 - Point Cloud Data file format
VERSION .7
FIELDS x y z rgb
SIZE 4 4 4 4
TYPE F F F F
COUNT 1 1 1 1
WIDTH 1294
HEIGHT 1
POINTS 1294
DATA ascii
0.380430 0.047910 -0.000000 0.000000
0.370526 0.047910 -0.000000 0.000000
0.360621 0.047910 -0.000000 0.000000
0.350537 0.047910 -0.000000 0.000000
0.340452 0.047910 -0.000000 0.000000
0.330548 0.047910 -0.000000 0.000000
0.325686 0.047910 -0.000000 0.000000
0.310559 0.047910 -0.000000 0.000000
0.300474 0.047910 -0.000000 0.000000
0.285527 0.047910 -0.000000 0.000000
0.260496 0.047910 -0.000000 0.000000
0.235644 0.047910 -0.000000 0.000000
0.230602 0.047910 -0.000000 0.000000
0.195666 0.047910 -0.000000 0.000000
0.180539 0.047910 -0.000000 0.000000
0.160550 0.047910 -0.000000 0.000000
0.155688 0.047910 -0.000000 0.000000
0.150646 0.047910 -0.000000 0.000000
0.125434 0.047910 -0.000000 0.000000
0.120392 0.047910 -0.000000 0.000000
0.105625 0.047910 -0.000000 0.000000
0.100583 0.047910 -0.000000 0.000000
0.080414 0.047910 -0.000000 0.000000
0.075552 0.047910 -0.000000 0.000000
0.060605 0.047910 -0.000000 0.000000
0.051995 0.049337 0.000894 0.000000
0.037558 0.055069 0.025770 0.000000
0.038013 0.055542 0.022234 0.000000
0.040859 0.053328 0.020132 0.000000
0.041554 0.054122 0.015161 0.000000
0.042233 0.054955 0.010558 0.000000
0.485598 0.052953 -0.000000 0.000000
0.475514 0.052953 -0.000000 0.000000
0.450662 0.052953 -0.000000 0.000000
0.445620 0.052953 -0.000000 0.000000
0.440578 0.052953 -0.000000 0.000000
0.425451 0.052953 -0.000000 0.000000
0.415546 0.052953 -0.000000 0.000000
0.410684 0.052953 -0.000000 0.000000
0.390515 0.052953 -0.000000 0.000000
0.385473 0.052953 -0.000000 0.000000
0.380430 0.052953 -0.000000 0.000000
0.375388 0.052953 -0.000000 0.000000
0.370526 0.052953 -0.000000 0.000000
0.365664 0.052953 -0.000000 0.000000
0.355579 0.052953 -0.000000 0.000000
0.350537 0.052953 -0.000000 0.000000
0.340452 0.052953 -0.000000 0.000000
0.320643 0.052953 -0.000000 0.000000
0.300474 0.052953 -0.000000 0.000000
0.270580 0.052953 -0.000000 0.000000
0.260496 0.052953 -0.000000 0.000000
0.250411 0.052953 -0.000000 0.000000
0.245549 0.052953 -0.000000 0.000000
0.240687 0.052953 -0.000000 0.000000
0.235644 0.052953 -0.000000 0.000000
0.215475 0.052953 -0.000000 0.000000
0.200528 0.052953 -0.000000 0.000000
0.180539 0.052953 -0.000000 0.000000
0.170455 0.052953 -0.000000 0.000000
0.160550 0.052953 -0.000000 0.000000
0.155688 0.052953 -0.000000 0.000000
0.150646 0.052953 -0.000000 0.000000
0.135519 0.052953 -0.000000 0.000000
0.120392 0.052953 -0.000000 0.000000
0.105625 0.052953 -0.000000 0.000000
0.090498 0.052953 -0.000000 0.000000
0.175497 0.047910 -0.000000 0.000000
0.085456 0.052953 -0.000000 0.000000
0.080414 0.052953 -0.000000 0.000000
0.075552 0.052953 -0.000000 0.000000
0.050628 0.053072 0.000164 0.000000
0.046843 0.054409 0.000856 0.000000
0.039956 0.057134 0.009877 0.000000
0.036298 0.057704 0.019782 0.000000
0.036825 0.059583 0.010191 0.000000
0.489740 0.057995 -0.000000 0.000000
0.480556 0.057995 -0.000000 0.000000
0.475514 0.057995 -0.000000 0.000000
0.435536 0.057995 -0.000000 0.000000
0.041879 0.049351 0.030317 0.000000
0.425451 0.057995 -0.000000 0.000000
0.445620 0.057995 -0.000000 0.000000
0.420409 0.057995 -0.000000 0.000000
0.415546 0.057995 -0.000000 0.000000
0.385473 0.057995 -0.000000 0.000000
0.380430 0.057995 -0.000000 0.000000
0.355579 0.057995 -0.000000 0.000000
0.345495 0.057995 -0.000000 0.000000
0.340452 0.057995 -0.000000 0.000000
0.320643 0.057995 -0.000000 0.000000
0.310559 0.057995 -0.000000 0.000000
0.300474 0.057995 -0.000000 0.000000
0.295432 0.057995 -0.000000 0.000000
0.270580 0.057995 -0.000000 0.000000
0.265538 0.057995 -0.000000 0.000000
0.260496 0.057995 -0.000000 0.000000
0.235644 0.057995 -0.000000 0.000000
0.220518 0.057995 -0.000000 0.000000
0.085456 0.047910 -0.000000 0.000000
0.215475 0.057995 -0.000000 0.000000
0.210433 0.057995 -0.000000 0.000000
0.190624 0.057995 -0.000000 0.000000
0.180539 0.057995 -0.000000 0.000000
0.135519 0.057995 -0.000000 0.000000
0.130477 0.057995 -0.000000 0.000000
0.110668 0.057995 -0.000000 0.000000
0.090498 0.057995 -0.000000 0.000000
0.080414 0.057995 -0.000000 0.000000
0.050520 0.057995 -0.000000 0.000000
0.045509 0.058031 0.000125 0.000000
0.032647 0.062956 0.009244 0.000000
0.489740 0.063037 -0.000000 0.000000
0.485598 0.063037 -0.000000 0.000000
0.480556 0.063037 -0.000000 0.000000
0.475514 0.063037 -0.000000 0.000000
0.455525 0.063037 -0.000000 0.000000
0.445620 0.063037 -0.000000 0.000000
0.255453 0.057995 -0.000000 0.000000
0.435536 0.063037 -0.000000 0.000000
0.430493 0.063037 -0.000000 0.000000
0.039545 0.052036 0.029728 0.000000
0.425451 0.063037 -0.000000 0.000000
0.385473 0.063037 -0.000000 0.000000
0.380430 0.063037 -0.000000 0.000000
0.370526 0.063037 -0.000000 0.000000
0.365664 0.063037 -0.000000 0.000000
0.355579 0.063037 -0.000000 0.000000
0.345495 0.063037 -0.000000 0.000000
0.340452 0.063037 -0.000000 0.000000
0.330548 0.063037 -0.000000 0.000000
0.325686 0.063037 -0.000000 0.000000
0.295432 0.063037 -0.000000 0.000000
0.285527 0.063037 -0.000000 0.000000
0.270580 0.063037 -0.000000 0.000000
0.265538 0.063037 -0.000000 0.000000
0.245549 0.063037 -0.000000 0.000000
0.235644 0.063037 -0.000000 0.000000
0.230602 0.063037 -0.000000 0.000000
0.220518 0.063037 -0.000000 0.000000
0.210433 0.063037 -0.000000 0.000000
0.200528 0.063037 -0.000000 0.000000
0.180539 0.063037 -0.000000 0.000000
0.115530 0.047910 -0.000000 0.000000
0.465429 0.057995 -0.000000 0.000000
0.175497 0.063037 -0.000000 0.000000
0.110668 0.047910 -0.000000 0.000000
0.170455 0.063037 -0.000000 0.000000
0.195666 0.052953 -0.000000 0.000000
0.160550 0.063037 -0.000000 0.000000
0.150646 0.063037 -0.000000 0.000000
0.125434 0.063037 -0.000000 0.000000
0.100583 0.063037 -0.000000 0.000000
0.095541 0.063037 -0.000000 0.000000
0.075552 0.063037 -0.000000 0.000000
0.060605 0.063037 -0.000000 0.000000
0.055562 0.063037 -0.000000 0.000000
0.045478 0.063037 -0.000000 0.000000
0.035799 0.063595 0.000324 0.000000
0.489740 0.068080 -0.000000 0.000000
0.485598 0.068080 -0.000000 0.000000
0.475514 0.068080 -0.000000 0.000000
0.470471 0.068080 -0.000000 0.000000
0.450662 0.068080 -0.000000 0.000000
0.410684 0.068080 -0.000000 0.000000
0.395557 0.068080 -0.000000 0.000000
0.390515 0.068080 -0.000000 0.000000
0.385473 0.068080 -0.000000 0.000000
0.365664 0.068080 -0.000000 0.000000
0.355579 0.068080 -0.000000 0.000000
0.320643 0.068080 -0.000000 0.000000
0.295432 0.068080 -0.000000 0.000000
0.285527 0.068080 -0.000000 0.000000
0.270580 0.068080 -0.000000 0.000000
0.265538 0.068080 -0.000000 0.000000
0.250411 0.068080 -0.000000 0.000000
0.245549 0.068080 -0.000000 0.000000
0.240687 0.068080 -0.000000 0.000000
0.230602 0.068080 -0.000000 0.000000
0.210433 0.068080 -0.000000 0.000000
0.195666 0.068080 -0.000000 0.000000
0.190624 0.068080 -0.000000 0.000000
0.175497 0.068080 -0.000000 0.000000
0.145603 0.068080 -0.000000 0.000000
0.135519 0.068080 -0.000000 0.000000
0.415546 0.068080 -0.000000 0.000000
0.120392 0.068080 -0.000000 0.000000
0.115530 0.068080 -0.000000 0.000000
0.080414 0.068080 -0.000000 0.000000
0.060605 0.068080 -0.000000 0.000000
0.480556 0.073122 -0.000000 0.000000
0.475514 0.073122 -0.000000 0.000000
0.165412 0.063037 -0.000000 0.000000
0.150646 0.068080 -0.000000 0.000000
0.465429 0.073122 -0.000000 0.000000
0.460387 0.073122 -0.000000 0.000000
0.435536 0.073122 -0.000000 0.000000
0.445620 0.047910 -0.000000 0.000000
0.430493 0.073122 -0.000000 0.000000
0.410684 0.073122 -0.000000 0.000000
0.385473 0.073122 -0.000000 0.000000
0.375388 0.073122 -0.000000 0.000000
0.345495 0.073122 -0.000000 0.000000
0.330548 0.073122 -0.000000 0.000000
0.310559 0.073122 -0.000000 0.000000
0.300474 0.073122 -0.000000 0.000000
0.280665 0.073122 -0.000000 0.000000
0.270580 0.073122 -0.000000 0.000000
0.445620 0.068080 -0.000000 0.000000
0.265538 0.073122 -0.000000 0.000000
0.245549 0.073122 -0.000000 0.000000
0.240687 0.073122 -0.000000 0.000000
0.235644 0.073122 -0.000000 0.000000
0.350537 0.057995 -0.000000 0.000000
0.230602 0.073122 -0.000000 0.000000
0.220518 0.073122 -0.000000 0.000000
0.215475 0.073122 -0.000000 0.000000
0.210433 0.073122 -0.000000 0.000000
0.200528 0.073122 -0.000000 0.000000
0.405642 0.047910 -0.000000 0.000000
0.185582 0.073122 -0.000000 0.000000
0.175497 0.073122 -0.000000 0.000000
0.160550 0.073122 -0.000000 0.000000
0.155688 0.073122 -0.000000 0.000000
0.145603 0.073122 -0.000000 0.000000
0.130477 0.073122 -0.000000 0.000000
0.080414 0.073122 -0.000000 0.000000
0.075552 0.073122 -0.000000 0.000000
0.045478 0.073122 -0.000000 0.000000
0.065647 0.068080 -0.000000 0.000000
0.040436 0.073122 -0.000000 0.000000
0.470471 0.078164 -0.000000 0.000000
0.460387 0.078164 -0.000000 0.000000
0.445620 0.078164 -0.000000 0.000000
0.435536 0.078164 -0.000000 0.000000
0.425451 0.078164 -0.000000 0.000000
0.420409 0.078164 -0.000000 0.000000
0.410684 0.078164 -0.000000 0.000000
0.395557 0.078164 -0.000000 0.000000
0.390515 0.078164 -0.000000 0.000000
0.370526 0.078164 -0.000000 0.000000
0.345495 0.078164 -0.000000 0.000000
0.335410 0.078164 -0.000000 0.000000
0.330548 0.078164 -0.000000 0.000000
0.285527 0.078164 -0.000000 0.000000
0.270580 0.078164 -0.000000 0.000000
0.235644 0.078164 -0.000000 0.000000
0.450662 0.063037 -0.000000 0.000000
0.220518 0.078164 -0.000000 0.000000
0.215475 0.078164 -0.000000 0.000000
0.210433 0.078164 -0.000000 0.000000
0.195666 0.078164 -0.000000 0.000000
0.190624 0.078164 -0.000000 0.000000
0.160550 0.078164 -0.000000 0.000000
0.155688 0.078164 -0.000000 0.000000
0.150646 0.078164 -0.000000 0.000000
0.140561 0.078164 -0.000000 0.000000
0.130477 0.078164 -0.000000 0.000000
0.120392 0.078164 -0.000000 0.000000
0.110668 0.078164 -0.000000 0.000000
0.435536 0.047910 -0.000000 0.000000
0.105625 0.078164 -0.000000 0.000000
0.085456 0.078164 -0.000000 0.000000
0.060605 0.078164 -0.000000 0.000000
0.240687 0.078164 -0.000000 0.000000
0.045478 0.078164 -0.000000 0.000000
0.035393 0.078164 -0.000000 0.000000
0.031612 0.078164 -0.000000 0.000000
0.475514 0.083206 -0.000000 0.000000
0.465429 0.083206 -0.000000 0.000000
0.460387 0.083206 -0.000000 0.000000
0.455525 0.083206 -0.000000 0.000000
0.445620 0.083206 -0.000000 0.000000
0.265538 0.052953 -0.000000 0.000000
0.430493 0.083206 -0.000000 0.000000
0.410684 0.083206 -0.000000 0.000000
0.390515 0.083206 -0.000000 0.000000
0.385473 0.083206 -0.000000 0.000000
0.375388 0.083206 -0.000000 0.000000
0.370526 0.083206 -0.000000 0.000000
0.360621 0.083206 -0.000000 0.000000
0.350537 0.083206 -0.000000 0.000000
0.205391 0.068080 -0.000000 0.000000
0.340452 0.083206 -0.000000 0.000000
0.330548 0.083206 -0.000000 0.000000
0.280665 0.083206 -0.000000 0.000000
0.260496 0.083206 -0.000000 0.000000
0.255453 0.083206 -0.000000 0.000000
0.150646 0.057995 -0.000000 0.000000
0.250411 0.083206 -0.000000 0.000000
0.240687 0.083206 -0.000000 0.000000
0.220518 0.083206 -0.000000 0.000000
0.215475 0.083206 -0.000000 0.000000
0.210433 0.083206 -0.000000 0.000000
0.205391 0.083206 -0.000000 0.000000
0.195666 0.083206 -0.000000 0.000000
0.190624 0.083206 -0.000000 0.000000
0.175497 0.083206 -0.000000 0.000000
0.130477 0.083206 -0.000000 0.000000
0.355579 0.047910 -0.000000 0.000000
0.120392 0.083206 -0.000000 0.000000
0.110668 0.083206 -0.000000 0.000000
0.060605 0.083206 -0.000000 0.000000
0.055562 0.083206 -0.000000 0.000000
0.045478 0.083206 -0.000000 0.000000
0.035393 0.083206 -0.000000 0.000000
0.165412 0.068080 -0.000000 0.000000
0.150646 0.073122 -0.000000 0.000000
0.085456 0.073122 -0.000000 0.000000
0.031612 0.083206 -0.000000 0.000000
0.485598 0.088069 -0.000000 0.000000
0.470471 0.088069 -0.000000 0.000000
0.465429 0.088069 -0.000000 0.000000
0.265538 0.078164 -0.000000 0.000000
0.450662 0.088069 -0.000000 0.000000
0.435536 0.088069 -0.000000 0.000000
0.430493 0.088069 -0.000000 0.000000
0.420409 0.088069 -0.000000 0.000000
0.415546 0.088069 -0.000000 0.000000
0.170455 0.078164 -0.000000 0.000000
0.400600 0.088069 -0.000000 0.000000
0.365664 0.073122 -0.000000 0.000000
0.390515 0.088069 -0.000000 0.000000
0.385473 0.088069 -0.000000 0.000000
0.370526 0.088069 -0.000000 0.000000
0.365664 0.088069 -0.000000 0.000000
0.360621 0.088069 -0.000000 0.000000
0.100583 0.052953 -0.000000 0.000000
0.355579 0.088069 -0.000000 0.000000
0.350537 0.088069 -0.000000 0.000000
0.290389 0.063037 -0.000000 0.000000
0.330548 0.088069 -0.000000 0.000000
0.041197 0.059253 0.000625 0.000000
0.325686 0.088069 -0.000000 0.000000
0.315601 0.088069 -0.000000 0.000000
0.295432 0.088069 -0.000000 0.000000
0.285527 0.088069 -0.000000 0.000000
0.275623 0.088069 -0.000000 0.000000
0.270580 0.088069 -0.000000 0.000000
0.285527 0.052953 -0.000000 0.000000
0.255453 0.088069 -0.000000 0.000000
0.240687 0.088069 -0.000000 0.000000
0.235644 0.088069 -0.000000 0.000000
0.230602 0.088069 -0.000000 0.000000
0.205391 0.088069 -0.000000 0.000000
0.170455 0.088069 -0.000000 0.000000
0.165412 0.088069 -0.000000 0.000000
0.150646 0.088069 -0.000000 0.000000
0.110668 0.088069 -0.000000 0.000000
0.250411 0.063037 -0.000000 0.000000
0.245549 0.078164 -0.000000 0.000000
0.105625 0.088069 -0.000000 0.000000
0.085456 0.088069 -0.000000 0.000000
0.195666 0.073122 -0.000000 0.000000
0.080414 0.088069 -0.000000 0.000000
0.075552 0.088069 -0.000000 0.000000
0.065647 0.088069 -0.000000 0.000000
0.055562 0.088069 -0.000000 0.000000
0.040436 0.088069 -0.000000 0.000000
0.035393 0.088069 -0.000000 0.000000
0.031612 0.088069 -0.000000 0.000000
0.465429 0.092931 -0.000000 0.000000
0.460387 0.092931 -0.000000 0.000000
0.205391 0.052953 -0.000000 0.000000
0.455525 0.092931 -0.000000 0.000000
0.450662 0.092931 -0.000000 0.000000
0.440578 0.092931 -0.000000 0.000000
0.430493 0.092931 -0.000000 0.000000
0.425451 0.092931 -0.000000 0.000000
0.205391 0.057995 -0.000000 0.000000
0.420409 0.092931 -0.000000 0.000000
0.410684 0.092931 -0.000000 0.000000
0.390515 0.092931 -0.000000 0.000000
0.385473 0.092931 -0.000000 0.000000
0.049866 0.047586 0.009812 0.000000
0.440578 0.083206 -0.000000 0.000000
0.375388 0.092931 -0.000000 0.000000
0.365664 0.092931 -0.000000 0.000000
0.330548 0.092931 -0.000000 0.000000
0.325686 0.092931 -0.000000 0.000000
0.315601 0.092931 -0.000000 0.000000
0.310559 0.092931 -0.000000 0.000000
0.300474 0.092931 -0.000000 0.000000
0.265538 0.092931 -0.000000 0.000000
0.255453 0.092931 -0.000000 0.000000
0.250411 0.092931 -0.000000 0.000000
0.245549 0.092931 -0.000000 0.000000
0.240687 0.092931 -0.000000 0.000000
0.235644 0.092931 -0.000000 0.000000
0.230602 0.092931 -0.000000 0.000000
0.220518 0.092931 -0.000000 0.000000
0.210433 0.092931 -0.000000 0.000000
0.195666 0.092931 -0.000000 0.000000
0.335410 0.092931 -0.000000 0.000000
0.190624 0.092931 -0.000000 0.000000
0.255453 0.047910 -0.000000 0.000000
0.170455 0.092931 -0.000000 0.000000
0.035242 0.061970 0.004808 0.000000
0.150646 0.092931 -0.000000 0.000000
0.190624 0.063037 -0.000000 0.000000
0.125434 0.092931 -0.000000 0.000000
0.440578 0.047910 -0.000000 0.000000
0.120392 0.092931 -0.000000 0.000000
0.110668 0.092931 -0.000000 0.000000
0.245549 0.083206 -0.000000 0.000000
0.105625 0.092931 -0.000000 0.000000
0.100583 0.092931 -0.000000 0.000000
0.095541 0.092931 -0.000000 0.000000
0.080414 0.092931 -0.000000 0.000000
0.060605 0.092931 -0.000000 0.000000
0.280665 0.068080 -0.000000 0.000000
0.055562 0.092931 -0.000000 0.000000
0.045478 0.092931 -0.000000 0.000000
0.031612 0.092931 -0.000000 0.000000
0.480556 0.097973 -0.000000 0.000000
0.475514 0.097973 -0.000000 0.000000
0.455525 0.097973 -0.000000 0.000000
0.450662 0.097973 -0.000000 0.000000
0.445620 0.097973 -0.000000 0.000000
0.440578 0.097973 -0.000000 0.000000
0.055562 0.057995 -0.000000 0.000000
0.415546 0.097973 -0.000000 0.000000
0.405642 0.097973 -0.000000 0.000000
0.400600 0.097973 -0.000000 0.000000
0.395557 0.097973 -0.000000 0.000000
0.380430 0.097973 -0.000000 0.000000
0.280665 0.044129 -0.000000 0.000000
0.375388 0.097973 -0.000000 0.000000
0.370526 0.097973 -0.000000 0.000000
0.345495 0.097973 -0.000000 0.000000
0.335410 0.097973 -0.000000 0.000000
0.485598 0.057995 -0.000000 0.000000
0.325686 0.097973 -0.000000 0.000000
0.310559 0.097973 -0.000000 0.000000
0.280665 0.097973 -0.000000 0.000000
0.255453 0.097973 -0.000000 0.000000
0.250411 0.097973 -0.000000 0.000000
0.210433 0.097973 -0.000000 0.000000
0.190624 0.097973 -0.000000 0.000000
0.185582 0.097973 -0.000000 0.000000
0.180539 0.097973 -0.000000 0.000000
0.160550 0.097973 -0.000000 0.000000
0.150646 0.097973 -0.000000 0.000000
0.130477 0.097973 -0.000000 0.000000
0.115530 0.097973 -0.000000 0.000000
0.245549 0.088069 -0.000000 0.000000
0.105625 0.097973 -0.000000 0.000000
0.145603 0.052953 -0.000000 0.000000
0.085456 0.097973 -0.000000 0.000000
0.080414 0.097973 -0.000000 0.000000
0.075552 0.097973 -0.000000 0.000000
0.055562 0.097973 -0.000000 0.000000
0.050520 0.097973 -0.000000 0.000000
0.040436 0.097973 -0.000000 0.000000
0.031612 0.097973 -0.000000 0.000000
0.480556 0.103015 -0.000000 0.000000
0.475514 0.103015 -0.000000 0.000000
0.235644 0.068080 -0.000000 0.000000
0.465429 0.103015 -0.000000 0.000000
0.455525 0.103015 -0.000000 0.000000
0.450662 0.103015 -0.000000 0.000000
0.440578 0.103015 -0.000000 0.000000
0.385473 0.103015 -0.000000 0.000000
0.380430 0.103015 -0.000000 0.000000
0.375388 0.103015 -0.000000 0.000000
0.310559 0.078164 -0.000000 0.000000
0.360621 0.103015 -0.000000 0.000000
0.350537 0.103015 -0.000000 0.000000
0.335410 0.103015 -0.000000 0.000000
0.330548 0.103015 -0.000000 0.000000
0.325686 0.103015 -0.000000 0.000000
0.320643 0.103015 -0.000000 0.000000
0.489740 0.044129 -0.000000 0.000000
0.400600 0.063037 -0.000000 0.000000
0.300474 0.103015 -0.000000 0.000000
0.270580 0.083206 -0.000000 0.000000
0.295432 0.103015 -0.000000 0.000000
0.275623 0.044129 -0.000000 0.000000
0.290389 0.103015 -0.000000 0.000000
0.205391 0.063037 -0.000000 0.000000
0.285527 0.103015 -0.000000 0.000000
0.275623 0.103015 -0.000000 0.000000
0.270580 0.103015 -0.000000 0.000000
0.250411 0.103015 -0.000000 0.000000
0.245549 0.103015 -0.000000 0.000000
0.240687 0.103015 -0.000000 0.000000
0.235644 0.103015 -0.000000 0.000000
0.220518 0.103015 -0.000000 0.000000
0.185582 0.057995 -0.000000 0.000000
0.195666 0.103015 -0.000000 0.000000
0.190624 0.103015 -0.000000 0.000000
0.410684 0.097973 -0.000000 0.000000
0.185582 0.103015 -0.000000 0.000000
0.175497 0.103015 -0.000000 0.000000
0.170455 0.103015 -0.000000 0.000000
0.165412 0.103015 -0.000000 0.000000
0.160550 0.103015 -0.000000 0.000000
0.140561 0.103015 -0.000000 0.000000
0.135519 0.103015 -0.000000 0.000000
0.120392 0.103015 -0.000000 0.000000
0.115530 0.103015 -0.000000 0.000000
0.110668 0.103015 -0.000000 0.000000
0.105625 0.103015 -0.000000 0.000000
0.445620 0.092931 -0.000000 0.000000
0.095541 0.103015 -0.000000 0.000000
0.315601 0.083206 -0.000000 0.000000
0.080414 0.103015 -0.000000 0.000000
0.075552 0.103015 -0.000000 0.000000
0.055562 0.103015 -0.000000 0.000000
0.035393 0.103015 -0.000000 0.000000
0.485598 0.108058 -0.000000 0.000000
0.044243 0.051717 0.014550 0.000000
0.480556 0.108058 -0.000000 0.000000
0.470471 0.108058 -0.000000 0.000000
0.465429 0.108058 -0.000000 0.000000
0.460387 0.108058 -0.000000 0.000000
0.455525 0.108058 -0.000000 0.000000
0.450662 0.108058 -0.000000 0.000000
0.445620 0.108058 -0.000000 0.000000
0.440578 0.108058 -0.000000 0.000000
0.430493 0.108058 -0.000000 0.000000
0.052036 0.044921 0.010221 0.000000
0.055605 0.047972 0.000149 0.000000
0.415546 0.108058 -0.000000 0.000000
0.405642 0.108058 -0.000000 0.000000
0.400600 0.108058 -0.000000 0.000000
0.395557 0.108058 -0.000000 0.000000
0.095541 0.073122 -0.000000 0.000000
0.380430 0.108058 -0.000000 0.000000
0.375388 0.108058 -0.000000 0.000000
0.050520 0.092931 -0.000000 0.000000
0.090498 0.103015 -0.000000 0.000000
0.370526 0.108058 -0.000000 0.000000
0.335410 0.108058 -0.000000 0.000000
0.330548 0.108058 -0.000000 0.000000
0.190624 0.047910 -0.000000 0.000000
0.315601 0.108058 -0.000000 0.000000
0.310559 0.108058 -0.000000 0.000000
0.305516 0.108058 -0.000000 0.000000
0.375388 0.088069 -0.000000 0.000000
0.295432 0.108058 -0.000000 0.000000
0.280665 0.108058 -0.000000 0.000000
0.270580 0.108058 -0.000000 0.000000
0.255453 0.108058 -0.000000 0.000000
0.031613 0.068080 0.000007 0.000000
0.250411 0.108058 -0.000000 0.000000
0.245549 0.108058 -0.000000 0.000000
0.220518 0.108058 -0.000000 0.000000
0.215475 0.108058 -0.000000 0.000000
0.200528 0.108058 -0.000000 0.000000
0.190624 0.108058 -0.000000 0.000000
0.185582 0.108058 -0.000000 0.000000
0.355579 0.044129 -0.000000 0.000000
0.175497 0.108058 -0.000000 0.000000
0.285527 0.057995 -0.000000 0.000000
0.165412 0.108058 -0.000000 0.000000
0.155688 0.108058 -0.000000 0.000000
0.150646 0.108058 -0.000000 0.000000
0.065647 0.092931 -0.000000 0.000000
0.135519 0.108058 -0.000000 0.000000
0.130477 0.108058 -0.000000 0.000000
0.043500 0.051054 0.018862 0.000000
0.120392 0.108058 -0.000000 0.000000
0.105625 0.108058 -0.000000 0.000000
0.053345 0.044270 0.008221 0.000000
0.095541 0.108058 -0.000000 0.000000
0.080414 0.108058 -0.000000 0.000000
0.065647 0.108058 -0.000000 0.000000
0.060605 0.108058 -0.000000 0.000000
0.055562 0.108058 -0.000000 0.000000
0.050520 0.108058 -0.000000 0.000000
0.040436 0.108058 -0.000000 0.000000
0.180539 0.088069 -0.000000 0.000000
0.031612 0.108058 -0.000000 0.000000
0.480556 0.113100 -0.000000 0.000000
0.465429 0.113100 -0.000000 0.000000
0.455525 0.113100 -0.000000 0.000000
0.450662 0.113100 -0.000000 0.000000
0.435536 0.113100 -0.000000 0.000000
0.430493 0.113100 -0.000000 0.000000
0.425451 0.113100 -0.000000 0.000000
0.350537 0.063037 -0.000000 0.000000
0.405642 0.113100 -0.000000 0.000000
0.370526 0.103015 -0.000000 0.000000
0.400600 0.113100 -0.000000 0.000000
0.205391 0.097973 -0.000000 0.000000
0.390515 0.113100 -0.000000 0.000000
0.375388 0.113100 -0.000000 0.000000
0.370526 0.113100 -0.000000 0.000000
0.365664 0.113100 -0.000000 0.000000
0.355579 0.113100 -0.000000 0.000000
0.190624 0.052953 -0.000000 0.000000
0.485598 0.073122 -0.000000 0.000000
0.125434 0.083206 -0.000000 0.000000
0.340452 0.113100 -0.000000 0.000000
0.135519 0.097973 -0.000000 0.000000
0.325686 0.113100 -0.000000 0.000000
0.185582 0.052953 -0.000000 0.000000
0.195666 0.097973 -0.000000 0.000000
0.320643 0.113100 -0.000000 0.000000
0.400600 0.073122 -0.000000 0.000000
0.250411 0.078164 -0.000000 0.000000
0.300474 0.113100 -0.000000 0.000000
0.285527 0.113100 -0.000000 0.000000
0.275623 0.113100 -0.000000 0.000000
0.270580 0.113100 -0.000000 0.000000
0.265538 0.113100 -0.000000 0.000000
0.250411 0.113100 -0.000000 0.000000
0.260496 0.044129 -0.000000 0.000000
0.245549 0.113100 -0.000000 0.000000
0.235644 0.113100 -0.000000 0.000000
0.215475 0.113100 -0.000000 0.000000
0.295432 0.047910 -0.000000 0.000000
0.210433 0.113100 -0.000000 0.000000
0.180539 0.113100 -0.000000 0.000000
0.405642 0.078164 -0.000000 0.000000
0.185582 0.092931 -0.000000 0.000000
0.095541 0.097973 -0.000000 0.000000
0.175497 0.113100 -0.000000 0.000000
0.150646 0.113100 -0.000000 0.000000
0.140561 0.113100 -0.000000 0.000000
0.135519 0.113100 -0.000000 0.000000
0.130477 0.113100 -0.000000 0.000000
0.047388 0.049870 0.010787 0.000000
0.450662 0.073122 -0.000000 0.000000
0.120392 0.113100 -0.000000 0.000000
0.115530 0.113100 -0.000000 0.000000
0.120392 0.097973 -0.000000 0.000000
0.095541 0.113100 -0.000000 0.000000
0.090498 0.113100 -0.000000 0.000000
0.085456 0.113100 -0.000000 0.000000
0.080414 0.113100 -0.000000 0.000000
0.075552 0.113100 -0.000000 0.000000
0.475514 0.092931 -0.000000 0.000000
0.055562 0.113100 -0.000000 0.000000
0.040436 0.113100 -0.000000 0.000000
0.035393 0.113100 -0.000000 0.000000
0.180539 0.083206 -0.000000 0.000000
0.031612 0.113100 -0.000000 0.000000
0.485598 0.118142 -0.000000 0.000000
0.475514 0.118142 -0.000000 0.000000
0.470471 0.118142 -0.000000 0.000000
0.460387 0.118142 -0.000000 0.000000
0.455525 0.118142 -0.000000 0.000000
0.115530 0.092931 -0.000000 0.000000
0.445620 0.118142 -0.000000 0.000000
0.435536 0.118142 -0.000000 0.000000
0.420409 0.118142 -0.000000 0.000000
0.085456 0.083206 -0.000000 0.000000
0.410684 0.118142 -0.000000 0.000000
0.405642 0.118142 -0.000000 0.000000
0.400600 0.118142 -0.000000 0.000000
0.395557 0.118142 -0.000000 0.000000
0.380430 0.118142 -0.000000 0.000000
0.375388 0.118142 -0.000000 0.000000
0.355579 0.078164 -0.000000 0.000000
0.090498 0.092931 -0.000000 0.000000
0.370526 0.118142 -0.000000 0.000000
0.365664 0.118142 -0.000000 0.000000
0.360621 0.118142 -0.000000 0.000000
0.350537 0.078164 -0.000000 0.000000
0.355579 0.118142 -0.000000 0.000000
0.405642 0.083206 -0.000000 0.000000
0.355579 0.103015 -0.000000 0.000000
0.350537 0.118142 -0.000000 0.000000
0.345495 0.118142 -0.000000 0.000000
0.370526 0.057995 -0.000000 0.000000
0.340452 0.118142 -0.000000 0.000000
0.275623 0.063037 -0.000000 0.000000
0.110668 0.113100 -0.000000 0.000000
0.335410 0.118142 -0.000000 0.000000
0.195666 0.063037 -0.000000 0.000000
0.205391 0.103015 -0.000000 0.000000
0.330548 0.118142 -0.000000 0.000000
0.325686 0.118142 -0.000000 0.000000
0.145603 0.063037 -0.000000 0.000000
0.280665 0.118142 -0.000000 0.000000
0.270580 0.118142 -0.000000 0.000000
0.215475 0.118142 -0.000000 0.000000
0.205391 0.118142 -0.000000 0.000000
0.180539 0.118142 -0.000000 0.000000
0.175497 0.118142 -0.000000 0.000000
0.145603 0.118142 -0.000000 0.000000
0.140561 0.118142 -0.000000 0.000000
0.170455 0.108058 -0.000000 0.000000
0.135519 0.118142 -0.000000 0.000000
0.130477 0.118142 -0.000000 0.000000
0.125434 0.118142 -0.000000 0.000000
0.105625 0.118142 -0.000000 0.000000
0.100583 0.118142 -0.000000 0.000000
0.085456 0.118142 -0.000000 0.000000
0.080414 0.118142 -0.000000 0.000000
0.140561 0.108058 -0.000000 0.000000
0.065647 0.118142 -0.000000 0.000000
0.475514 0.088069 -0.000000 0.000000
0.055562 0.118142 -0.000000 0.000000
0.145603 0.078164 -0.000000 0.000000
0.040436 0.118142 -0.000000 0.000000
0.035393 0.118142 -0.000000 0.000000
0.040436 0.078164 -0.000000 0.000000
0.031612 0.118142 -0.000000 0.000000
0.489740 0.123185 -0.000000 0.000000
0.485598 0.123185 -0.000000 0.000000
0.035393 0.092931 -0.000000 0.000000
0.470471 0.123185 -0.000000 0.000000
0.460387 0.123185 -0.000000 0.000000
0.445620 0.123185 -0.000000 0.000000
0.435536 0.123185 -0.000000 0.000000
0.430493 0.123185 -0.000000 0.000000
0.420409 0.123185 -0.000000 0.000000
0.410684 0.123185 -0.000000 0.000000
0.400600 0.123185 -0.000000 0.000000
0.048700 0.045323 0.018851 0.000000
0.395557 0.123185 -0.000000 0.000000
0.375388 0.123185 -0.000000 0.000000
0.090498 0.047910 -0.000000 0.000000
0.370526 0.123185 -0.000000 0.000000
0.365664 0.123185 -0.000000 0.000000
0.450662 0.044129 -0.000000 0.000000
0.360621 0.123185 -0.000000 0.000000
0.350537 0.073122 -0.000000 0.000000
0.355579 0.123185 -0.000000 0.000000
0.465429 0.063037 -0.000000 0.000000
0.335410 0.123185 -0.000000 0.000000
0.200528 0.118142 -0.000000 0.000000
0.310559 0.123185 -0.000000 0.000000
0.300474 0.078164 -0.000000 0.000000
0.305516 0.123185 -0.000000 0.000000
0.300474 0.123185 -0.000000 0.000000
0.295432 0.123185 -0.000000 0.000000
0.290389 0.123185 -0.000000 0.000000
0.145603 0.057995 -0.000000 0.000000
0.280665 0.123185 -0.000000 0.000000
0.255453 0.123185 -0.000000 0.000000
0.250411 0.123185 -0.000000 0.000000
0.245549 0.123185 -0.000000 0.000000
0.115530 0.118142 -0.000000 0.000000
0.225560 0.123185 -0.000000 0.000000
0.225560 0.113100 -0.000000 0.000000
0.220518 0.123185 -0.000000 0.000000
0.215475 0.123185 -0.000000 0.000000
0.210433 0.123185 -0.000000 0.000000
0.045478 0.113100 -0.000000 0.000000
0.200528 0.123185 -0.000000 0.000000
0.330548 0.097973 -0.000000 0.000000
0.195666 0.123185 -0.000000 0.000000
0.180539 0.123185 -0.000000 0.000000
0.175497 0.123185 -0.000000 0.000000
0.265538 0.047910 -0.000000 0.000000
0.160550 0.123185 -0.000000 0.000000
0.150646 0.123185 -0.000000 0.000000
0.425451 0.068080 -0.000000 0.000000
0.325686 0.123185 -0.000000 0.000000
0.140561 0.123185 -0.000000 0.000000
0.135519 0.123185 -0.000000 0.000000
0.130477 0.123185 -0.000000 0.000000
0.455525 0.078164 -0.000000 0.000000
0.125434 0.123185 -0.000000 0.000000
0.120392 0.123185 -0.000000 0.000000
0.115530 0.123185 -0.000000 0.000000
0.110668 0.123185 -0.000000 0.000000
0.275623 0.078164 -0.000000 0.000000
0.105625 0.123185 -0.000000 0.000000
0.095541 0.123185 -0.000000 0.000000
0.090498 0.123185 -0.000000 0.000000
0.080414 0.123185 -0.000000 0.000000
0.135519 0.044129 -0.000000 0.000000
0.050520 0.123185 -0.000000 0.000000
0.140561 0.044129 -0.000000 0.000000
0.045478 0.123185 -0.000000 0.000000
0.115530 0.108058 -0.000000 0.000000
0.040436 0.123185 -0.000000 0.000000
0.040436 0.083206 -0.000000 0.000000
0.031612 0.123185 -0.000000 0.000000
0.220518 0.097973 -0.000000 0.000000
0.480556 0.128047 -0.000000 0.000000
0.470471 0.128047 -0.000000 0.000000
0.445620 0.128047 -0.000000 0.000000
0.435536 0.128047 -0.000000 0.000000
0.430493 0.128047 -0.000000 0.000000
0.275623 0.068080 -0.000000 0.000000
0.420409 0.128047 -0.000000 0.000000
0.410684 0.128047 -0.000000 0.000000
0.400600 0.128047 -0.000000 0.000000
0.395557 0.128047 -0.000000 0.000000
0.410684 0.103015 -0.000000 0.000000
0.390515 0.128047 -0.000000 0.000000
0.440578 0.088069 -0.000000 0.000000
0.380430 0.128047 -0.000000 0.000000
0.440578 0.068080 -0.000000 0.000000
0.375388 0.128047 -0.000000 0.000000
0.370526 0.128047 -0.000000 0.000000
0.355579 0.128047 -0.000000 0.000000
0.345495 0.128047 -0.000000 0.000000
0.340452 0.128047 -0.000000 0.000000
0.335410 0.128047 -0.000000 0.000000
0.320643 0.128047 -0.000000 0.000000
0.315601 0.128047 -0.000000 0.000000
0.300474 0.128047 -0.000000 0.000000
0.290389 0.128047 -0.000000 0.000000
0.285527 0.128047 -0.000000 0.000000
0.350537 0.068080 -0.000000 0.000000
0.275623 0.128047 -0.000000 0.000000
0.270580 0.128047 -0.000000 0.000000
0.230602 0.128047 -0.000000 0.000000
0.225560 0.108058 -0.000000 0.000000
0.220518 0.128047 -0.000000 0.000000
0.215475 0.128047 -0.000000 0.000000
0.205391 0.128047 -0.000000 0.000000
0.195666 0.128047 -0.000000 0.000000
0.165412 0.128047 -0.000000 0.000000
0.160550 0.128047 -0.000000 0.000000
0.155688 0.128047 -0.000000 0.000000
0.145603 0.128047 -0.000000 0.000000
0.140561 0.128047 -0.000000 0.000000
0.035393 0.068080 -0.000000 0.000000
0.135519 0.128047 -0.000000 0.000000
0.065647 0.047910 -0.000000 0.000000
0.115530 0.057995 -0.000000 0.000000
0.130477 0.128047 -0.000000 0.000000
0.120392 0.128047 -0.000000 0.000000
0.110668 0.128047 -0.000000 0.000000
0.310559 0.113100 -0.000000 0.000000
0.105625 0.128047 -0.000000 0.000000
0.095541 0.128047 -0.000000 0.000000
0.220518 0.113100 -0.000000 0.000000
0.080414 0.128047 -0.000000 0.000000
0.050520 0.128047 -0.000000 0.000000
0.045478 0.128047 -0.000000 0.000000
0.035393 0.128047 -0.000000 0.000000
0.031612 0.128047 -0.000000 0.000000
0.475514 0.132909 -0.000000 0.000000
0.480556 0.088069 -0.000000 0.000000
0.445620 0.132909 -0.000000 0.000000
0.440578 0.132909 -0.000000 0.000000
0.420409 0.132909 -0.000000 0.000000
0.415546 0.132909 -0.000000 0.000000
0.405642 0.132909 -0.000000 0.000000
0.390515 0.132909 -0.000000 0.000000
0.370526 0.132909 -0.000000 0.000000
0.365664 0.132909 -0.000000 0.000000
0.355579 0.132909 -0.000000 0.000000
0.345495 0.132909 -0.000000 0.000000
0.340452 0.132909 -0.000000 0.000000
0.335410 0.132909 -0.000000 0.000000
0.330548 0.132909 -0.000000 0.000000
0.489740 0.128047 -0.000000 0.000000
0.325686 0.132909 -0.000000 0.000000
0.305516 0.132909 -0.000000 0.000000
0.400600 0.057995 -0.000000 0.000000
0.300474 0.132909 -0.000000 0.000000
0.275623 0.132909 -0.000000 0.000000
0.270580 0.132909 -0.000000 0.000000
0.320643 0.063037 -0.000000 0.000000
0.260496 0.132909 -0.000000 0.000000
0.255453 0.132909 -0.000000 0.000000
0.400600 0.078164 -0.000000 0.000000
0.240687 0.132909 -0.000000 0.000000
0.225560 0.132909 -0.000000 0.000000
0.225560 0.103015 -0.000000 0.000000
0.220518 0.132909 -0.000000 0.000000
0.205391 0.132909 -0.000000 0.000000
0.195666 0.132909 -0.000000 0.000000
0.175497 0.132909 -0.000000 0.000000
0.165412 0.132909 -0.000000 0.000000
0.065647 0.057995 -0.000000 0.000000
0.150646 0.132909 -0.000000 0.000000
0.350537 0.132909 -0.000000 0.000000
0.140561 0.132909 -0.000000 0.000000
0.130477 0.132909 -0.000000 0.000000
0.120392 0.132909 -0.000000 0.000000
0.115530 0.132909 -0.000000 0.000000
0.110668 0.132909 -0.000000 0.000000
0.100583 0.132909 -0.000000 0.000000
0.090498 0.132909 -0.000000 0.000000
0.220518 0.118142 -0.000000 0.000000
0.080414 0.132909 -0.000000 0.000000
0.040436 0.128047 -0.000000 0.000000
0.065647 0.132909 -0.000000 0.000000
0.060605 0.132909 -0.000000 0.000000
0.185582 0.113100 -0.000000 0.000000
0.320643 0.132909 -0.000000 0.000000
0.055562 0.132909 -0.000000 0.000000
0.065647 0.128047 -0.000000 0.000000
0.040436 0.132909 -0.000000 0.000000
0.475514 0.137951 -0.000000 0.000000
0.185582 0.132909 -0.000000 0.000000
0.470471 0.137951 -0.000000 0.000000
0.115530 0.128047 -0.000000 0.000000
0.465429 0.137951 -0.000000 0.000000
0.425451 0.137951 -0.000000 0.000000
0.420409 0.137951 -0.000000 0.000000
0.060605 0.088069 -0.000000 0.000000
0.415546 0.137951 -0.000000 0.000000
0.410684 0.137951 -0.000000 0.000000
0.405642 0.137951 -0.000000 0.000000
0.395557 0.137951 -0.000000 0.000000
0.460387 0.132909 -0.000000 0.000000
0.380430 0.137951 -0.000000 0.000000
0.440578 0.078164 -0.000000 0.000000
0.375388 0.137951 -0.000000 0.000000
0.370526 0.137951 -0.000000 0.000000
0.255453 0.063037 -0.000000 0.000000
0.365664 0.137951 -0.000000 0.000000
0.355579 0.137951 -0.000000 0.000000
0.165412 0.052953 -0.000000 0.000000
0.135519 0.092931 -0.000000 0.000000
0.350537 0.137951 -0.000000 0.000000
0.335410 0.137951 -0.000000 0.000000
0.325686 0.137951 -0.000000 0.000000
0.085456 0.068080 -0.000000 0.000000
0.105625 0.073122 -0.000000 0.000000
0.320643 0.137951 -0.000000 0.000000
0.310559 0.137951 -0.000000 0.000000
0.295432 0.137951 -0.000000 0.000000
0.260496 0.137951 -0.000000 0.000000
0.250411 0.137951 -0.000000 0.000000
0.245549 0.137951 -0.000000 0.000000
0.225560 0.137951 -0.000000 0.000000
0.225560 0.097973 -0.000000 0.000000
0.220518 0.137951 -0.000000 0.000000
0.215475 0.137951 -0.000000 0.000000
0.195666 0.137951 -0.000000 0.000000
0.050520 0.113100 -0.000000 0.000000
0.475514 0.128047 -0.000000 0.000000
0.190624 0.137951 -0.000000 0.000000
0.180539 0.137951 -0.000000 0.000000
0.170455 0.137951 -0.000000 0.000000
0.275623 0.137951 -0.000000 0.000000
0.165412 0.137951 -0.000000 0.000000
0.160550 0.137951 -0.000000 0.000000
0.150646 0.137951 -0.000000 0.000000
0.145603 0.137951 -0.000000 0.000000
0.135519 0.137951 -0.000000 0.000000
0.125434 0.137951 -0.000000 0.000000
0.120392 0.137951 -0.000000 0.000000
0.105625 0.137951 -0.000000 0.000000
0.100583 0.137951 -0.000000 0.000000
0.095541 0.137951 -0.000000 0.000000
0.085456 0.137951 -0.000000 0.000000
0.155688 0.132909 -0.000000 0.000000
0.075552 0.137951 -0.000000 0.000000
0.065647 0.137951 -0.000000 0.000000
0.050520 0.137951 -0.000000 0.000000
0.489740 0.092931 -0.000000 0.000000
0.040436 0.137951 -0.000000 0.000000
0.035393 0.137951 -0.000000 0.000000
0.031612 0.137951 -0.000000 0.000000
0.140561 0.057995 -0.000000 0.000000
0.485598 0.142994 -0.000000 0.000000
0.395557 0.063037 -0.000000 0.000000
0.475514 0.142994 -0.000000 0.000000
0.465429 0.142994 -0.000000 0.000000
0.460387 0.142994 -0.000000 0.000000
0.450662 0.142994 -0.000000 0.000000
0.445620 0.142994 -0.000000 0.000000
0.435536 0.142994 -0.000000 0.000000
0.420409 0.142994 -0.000000 0.000000
0.410684 0.142994 -0.000000 0.000000
0.395557 0.142994 -0.000000 0.000000
0.060605 0.052953 -0.000000 0.000000
0.390515 0.142994 -0.000000 0.000000
0.460387 0.044129 -0.000000 0.000000
0.280665 0.078164 -0.000000 0.000000
0.380430 0.142994 -0.000000 0.000000
0.370526 0.142994 -0.000000 0.000000
0.365664 0.142994 -0.000000 0.000000
0.295432 0.097973 -0.000000 0.000000
0.360621 0.142994 -0.000000 0.000000
0.355579 0.142994 -0.000000 0.000000
0.350537 0.142994 -0.000000 0.000000
0.345495 0.142994 -0.000000 0.000000
0.310559 0.083206 -0.000000 0.000000
0.360621 0.097973 -0.000000 0.000000
0.330548 0.142994 -0.000000 0.000000
0.350537 0.123185 -0.000000 0.000000
0.325686 0.142994 -0.000000 0.000000
0.140561 0.047910 -0.000000 0.000000
0.310559 0.142994 -0.000000 0.000000
0.305516 0.142994 -0.000000 0.000000
0.155688 0.123185 -0.000000 0.000000
0.300474 0.142994 -0.000000 0.000000
0.265538 0.118142 -0.000000 0.000000
0.295432 0.142994 -0.000000 0.000000
0.295432 0.132909 -0.000000 0.000000
0.285527 0.142994 -0.000000 0.000000
0.275623 0.142994 -0.000000 0.000000
0.255453 0.142994 -0.000000 0.000000
0.235644 0.142994 -0.000000 0.000000
0.080414 0.078164 -0.000000 0.000000
0.230602 0.142994 -0.000000 0.000000
0.225560 0.142994 -0.000000 0.000000
0.225560 0.092931 -0.000000 0.000000
0.470471 0.132909 -0.000000 0.000000
0.220518 0.142994 -0.000000 0.000000
0.210433 0.142994 -0.000000 0.000000
0.195666 0.142994 -0.000000 0.000000
0.155688 0.088069 -0.000000 0.000000
0.190624 0.142994 -0.000000 0.000000
0.185582 0.142994 -0.000000 0.000000
0.180539 0.142994 -0.000000 0.000000
0.175497 0.142994 -0.000000 0.000000
0.075552 0.044129 -0.000000 0.000000
0.150646 0.142994 -0.000000 0.000000
0.135519 0.142994 -0.000000 0.000000
0.380430 0.132909 -0.000000 0.000000
0.460387 0.137951 -0.000000 0.000000
0.110668 0.142994 -0.000000 0.000000
0.100583 0.142994 -0.000000 0.000000
0.230602 0.097973 -0.000000 0.000000
0.360621 0.108058 -0.000000 0.000000
0.085456 0.142994 -0.000000 0.000000
0.165412 0.047910 -0.000000 0.000000
0.075552 0.142994 -0.000000 0.000000
0.065647 0.142994 -0.000000 0.000000
0.060605 0.142994 -0.000000 0.000000
0.060605 0.073122 -0.000000 0.000000
0.055562 0.142994 -0.000000 0.000000
0.045478 0.142994 -0.000000 0.000000
0.040436 0.142994 -0.000000 0.000000
0.031612 0.103015 -0.000000 0.000000
0.035393 0.142994 -0.000000 0.000000
0.031612 0.142994 -0.000000 0.000000
0.284896 0.148659 0.051500 0.000000
0.265499 0.148659 0.051500 0.000000
0.310559 0.128047 -0.000000 0.000000
0.260521 0.148659 0.051500 0.000000
0.255543 0.148659 0.051500 0.000000
0.250565 0.148659 0.051500 0.000000
0.236490 0.148659 0.051500 0.000000
0.489740 0.148036 -0.000000 0.000000
0.480556 0.148036 -0.000000 0.000000
0.395557 0.057995 -0.000000 0.000000
0.475514 0.148036 -0.000000 0.000000
0.470471 0.148036 -0.000000 0.000000
0.465429 0.148036 -0.000000 0.000000
0.460387 0.148036 -0.000000 0.000000
0.450662 0.148036 -0.000000 0.000000
0.445620 0.148036 -0.000000 0.000000
0.435536 0.148036 -0.000000 0.000000
0.275623 0.097973 -0.000000 0.000000
0.430493 0.148036 -0.000000 0.000000
0.420409 0.148036 -0.000000 0.000000
0.415546 0.148036 -0.000000 0.000000
0.410684 0.148036 -0.000000 0.000000
0.085456 0.063037 -0.000000 0.000000
0.105625 0.068080 -0.000000 0.000000
0.320643 0.142994 -0.000000 0.000000
0.405642 0.148036 -0.000000 0.000000
0.395557 0.148036 -0.000000 0.000000
0.390515 0.148036 -0.000000 0.000000
0.385473 0.148036 -0.000000 0.000000
0.460387 0.047910 -0.000000 0.000000
0.380430 0.148036 -0.000000 0.000000
0.280665 0.092931 -0.000000 0.000000
0.375388 0.148036 -0.000000 0.000000
0.360621 0.148036 -0.000000 0.000000
0.355579 0.148036 -0.000000 0.000000
0.340452 0.148036 -0.000000 0.000000
0.335410 0.148036 -0.000000 0.000000
0.040436 0.092931 -0.000000 0.000000
0.330548 0.148036 -0.000000 0.000000
0.325686 0.148036 -0.000000 0.000000
0.310559 0.148036 -0.000000 0.000000
0.295432 0.148036 -0.000000 0.000000
0.290389 0.148036 -0.000000 0.000000
0.065647 0.083206 -0.000000 0.000000
0.225560 0.148036 -0.000000 0.000000
0.225560 0.088069 -0.000000 0.000000
0.220518 0.148036 -0.000000 0.000000
0.385473 0.108058 -0.000000 0.000000
0.215475 0.148036 -0.000000 0.000000
0.205391 0.148036 -0.000000 0.000000
0.130477 0.092931 -0.000000 0.000000
0.200528 0.148036 -0.000000 0.000000
0.270477 0.148659 0.051500 0.000000
0.190624 0.148036 -0.000000 0.000000
0.185582 0.148036 -0.000000 0.000000
0.170455 0.068080 -0.000000 0.000000
0.180539 0.148036 -0.000000 0.000000
0.170455 0.148036 -0.000000 0.000000
0.075552 0.083206 -0.000000 0.000000
0.165412 0.148036 -0.000000 0.000000
0.095541 0.047910 -0.000000 0.000000
0.155688 0.148036 -0.000000 0.000000
0.320643 0.047910 -0.000000 0.000000
0.150646 0.148036 -0.000000 0.000000
0.115530 0.142994 -0.000000 0.000000
0.145603 0.148036 -0.000000 0.000000
0.135519 0.148036 -0.000000 0.000000
0.105625 0.148036 -0.000000 0.000000
0.100583 0.148036 -0.000000 0.000000
0.415546 0.063037 -0.000000 0.000000
0.120392 0.073122 -0.000000 0.000000
0.095541 0.148036 -0.000000 0.000000
0.090498 0.148036 -0.000000 0.000000
0.230602 0.103015 -0.000000 0.000000
0.085456 0.148036 -0.000000 0.000000
0.345495 0.123185 -0.000000 0.000000
0.190624 0.128047 -0.000000 0.000000
0.075552 0.148036 -0.000000 0.000000
0.065647 0.148036 -0.000000 0.000000
0.060605 0.148036 -0.000000 0.000000
0.105625 0.044129 -0.000000 0.000000
0.465429 0.078164 -0.000000 0.000000
0.050520 0.148036 -0.000000 0.000000
0.040436 0.148036 -0.000000 0.000000
0.035393 0.148036 -0.000000 0.000000
0.284896 0.153122 0.051500 0.000000
0.280604 0.153122 0.051500 0.000000
0.275455 0.153122 0.051500 0.000000
0.270477 0.153122 0.051500 0.000000
0.265499 0.153122 0.051500 0.000000
0.255543 0.153122 0.051500 0.000000
0.455525 0.123185 -0.000000 0.000000
0.245587 0.153122 0.051500 0.000000
0.240438 0.153122 0.051500 0.000000
0.236490 0.153122 0.051500 0.000000
0.485598 0.153078 -0.000000 0.000000
0.465429 0.153078 -0.000000 0.000000
0.460387 0.153078 -0.000000 0.000000
0.450662 0.153078 -0.000000 0.000000
0.355579 0.073122 -0.000000 0.000000
0.050520 0.088069 -0.000000 0.000000
0.445620 0.153078 -0.000000 0.000000
0.440578 0.153078 -0.000000 0.000000
0.435536 0.153078 -0.000000 0.000000
0.430493 0.153078 -0.000000 0.000000
0.410684 0.153078 -0.000000 0.000000
0.415546 0.113100 -0.000000 0.000000
0.405642 0.153078 -0.000000 0.000000
0.435536 0.068080 -0.000000 0.000000
0.400600 0.153078 -0.000000 0.000000
0.395557 0.153078 -0.000000 0.000000
0.390515 0.153078 -0.000000 0.000000
0.460387 0.052953 -0.000000 0.000000
0.380430 0.153078 -0.000000 0.000000
0.155688 0.118142 -0.000000 0.000000
0.300474 0.148036 -0.000000 0.000000
0.375388 0.153078 -0.000000 0.000000
0.365664 0.153078 -0.000000 0.000000
0.360621 0.153078 -0.000000 0.000000
0.355579 0.153078 -0.000000 0.000000
0.465429 0.132909 -0.000000 0.000000
0.345495 0.153078 -0.000000 0.000000
0.340452 0.153078 -0.000000 0.000000
0.335410 0.153078 -0.000000 0.000000
0.095541 0.068080 -0.000000 0.000000
0.330548 0.153078 -0.000000 0.000000
0.325686 0.153078 -0.000000 0.000000
0.255453 0.052953 -0.000000 0.000000
0.320643 0.153078 -0.000000 0.000000
0.140561 0.142994 -0.000000 0.000000
0.305516 0.153078 -0.000000 0.000000
0.295432 0.153078 -0.000000 0.000000
0.290389 0.153078 -0.000000 0.000000
0.233483 0.153078 -0.000000 0.000000
0.065647 0.078164 -0.000000 0.000000
0.225560 0.153078 -0.000000 0.000000
0.215475 0.153078 -0.000000 0.000000
0.275623 0.073122 -0.000000 0.000000
0.210433 0.153078 -0.000000 0.000000
0.200528 0.153078 -0.000000 0.000000
0.185582 0.153078 -0.000000 0.000000
0.410684 0.047910 -0.000000 0.000000
0.170455 0.123185 -0.000000 0.000000
0.180539 0.153078 -0.000000 0.000000
0.170455 0.153078 -0.000000 0.000000
0.155688 0.153078 -0.000000 0.000000
0.345495 0.083206 -0.000000 0.000000
0.150646 0.153078 -0.000000 0.000000
0.115530 0.137951 -0.000000 0.000000
0.145603 0.153078 -0.000000 0.000000
0.140561 0.153078 -0.000000 0.000000
0.135519 0.153078 -0.000000 0.000000
0.120392 0.153078 -0.000000 0.000000
0.110668 0.153078 -0.000000 0.000000
0.105625 0.153078 -0.000000 0.000000
0.100583 0.153078 -0.000000 0.000000
0.095541 0.153078 -0.000000 0.000000
0.085456 0.153078 -0.000000 0.000000
0.475514 0.123185 -0.000000 0.000000
0.075552 0.153078 -0.000000 0.000000
0.065647 0.153078 -0.000000 0.000000
0.060605 0.153078 -0.000000 0.000000
0.055562 0.153078 -0.000000 0.000000
0.040436 0.153078 -0.000000 0.000000
0.035393 0.153078 -0.000000 0.000000
0.031612 0.153078 -0.000000 0.000000
0.284896 0.158100 0.051500 0.000000
0.280604 0.158100 0.051500 0.000000
0.440578 0.057995 -0.000000 0.000000
0.270477 0.158100 0.051500 0.000000
0.265499 0.158100 0.051500 0.000000
0.260521 0.158100 0.051500 0.000000
0.245587 0.158100 0.051500 0.000000
0.236490 0.158100 0.051500 0.000000
0.489740 0.158121 -0.000000 0.000000
0.485598 0.158121 -0.000000 0.000000
0.480556 0.158121 -0.000000 0.000000
0.225560 0.128047 -0.000000 0.000000
0.475514 0.158121 -0.000000 0.000000
0.465429 0.158121 -0.000000 0.000000
0.120392 0.148036 -0.000000 0.000000
0.450662 0.158121 -0.000000 0.000000
0.050520 0.083206 -0.000000 0.000000
0.445620 0.158121 -0.000000 0.000000
0.435536 0.158121 -0.000000 0.000000
0.210433 0.137951 -0.000000 0.000000
0.430493 0.158121 -0.000000 0.000000
0.075552 0.068080 -0.000000 0.000000
0.420409 0.158121 -0.000000 0.000000
0.345495 0.113100 -0.000000 0.000000
0.415546 0.118142 -0.000000 0.000000
0.405642 0.158121 -0.000000 0.000000
0.395557 0.158121 -0.000000 0.000000
0.390515 0.158121 -0.000000 0.000000
0.485598 0.148036 -0.000000 0.000000
0.130477 0.153078 -0.000000 0.000000
0.385473 0.158121 -0.000000 0.000000
0.460387 0.057995 -0.000000 0.000000
0.380430 0.158121 -0.000000 0.000000
0.375388 0.158121 -0.000000 0.000000
0.210433 0.047910 -0.000000 0.000000
0.360621 0.158121 -0.000000 0.000000
0.355579 0.158121 -0.000000 0.000000
0.165412 0.073122 -0.000000 0.000000
0.350537 0.158121 -0.000000 0.000000
0.345495 0.158121 -0.000000 0.000000
0.045478 0.088069 -0.000000 0.000000
0.335410 0.158121 -0.000000 0.000000
0.043649 0.056010 0.003755 0.000000
0.365664 0.083206 -0.000000 0.000000
0.330548 0.158121 -0.000000 0.000000
0.375388 0.057995 -0.000000 0.000000
0.320643 0.158121 -0.000000 0.000000
0.265538 0.097973 -0.000000 0.000000
0.305516 0.148036 -0.000000 0.000000
0.315601 0.158121 -0.000000 0.000000
0.130477 0.063037 -0.000000 0.000000
0.310559 0.158121 -0.000000 0.000000
0.260496 0.078164 -0.000000 0.000000
0.031612 0.148036 -0.000000 0.000000
0.305516 0.158121 -0.000000 0.000000
0.290389 0.158121 -0.000000 0.000000
0.365664 0.103015 -0.000000 0.000000
0.233483 0.158121 -0.000000 0.000000
0.175497 0.078164 -0.000000 0.000000
0.225560 0.158121 -0.000000 0.000000
0.050520 0.073122 -0.000000 0.000000
0.210433 0.158121 -0.000000 0.000000
0.200528 0.158121 -0.000000 0.000000
0.190624 0.118142 -0.000000 0.000000
0.195666 0.158121 -0.000000 0.000000
0.190624 0.158121 -0.000000 0.000000
0.185582 0.158121 -0.000000 0.000000
0.180539 0.158121 -0.000000 0.000000
0.205391 0.044129 -0.000000 0.000000
0.430493 0.068080 -0.000000 0.000000
0.175497 0.158121 -0.000000 0.000000
0.165412 0.158121 -0.000000 0.000000
0.290389 0.108058 -0.000000 0.000000
0.150646 0.158121 -0.000000 0.000000
0.145603 0.158121 -0.000000 0.000000
0.300474 0.068080 -0.000000 0.000000
0.120392 0.158121 -0.000000 0.000000
0.400600 0.083206 -0.000000 0.000000
0.110668 0.158121 -0.000000 0.000000
0.100583 0.158121 -0.000000 0.000000
0.090498 0.158121 -0.000000 0.000000
0.085456 0.158121 -0.000000 0.000000
0.080414 0.158121 -0.000000 0.000000
0.075552 0.158121 -0.000000 0.000000
0.060605 0.158121 -0.000000 0.000000
0.050520 0.158121 -0.000000 0.000000
0.050983 0.048369 0.005211 0.000000
0.045478 0.158121 -0.000000 0.000000
0.040436 0.158121 -0.000000 0.000000
0.050520 0.142994 -0.000000 0.000000
0.275455 0.163078 0.051500 0.000000
0.270477 0.163078 0.051500 0.000000
0.265499 0.163078 0.051500 0.000000
0.440578 0.123185 -0.000000 0.000000
0.260521 0.163078 0.051500 0.000000
0.290389 0.068080 -0.000000 0.000000
0.255543 0.163078 0.051500 0.000000
0.250565 0.163078 0.051500 0.000000
0.190624 0.132909 -0.000000 0.000000
0.489740 0.163163 -0.000000 0.000000
0.485598 0.163163 -0.000000 0.000000
0.305516 0.044129 -0.000000 0.000000
0.080414 0.148036 -0.000000 0.000000
0.475514 0.163163 -0.000000 0.000000
0.470471 0.163163 -0.000000 0.000000
