# .PCD v.7 - Point Cloud Data file format
VERSION .7
FIELDS x y z rgb
SIZE 4 4 4 4
TYPE F F F F
COUNT 1 1 1 1
WIDTH 1285
HEIGHT 1
POINTS 1285
DATA ascii
0.035430 -0.025276 -0.003011 0.000000
0.013785 -0.028048 0.009433 0.000000
0.035141 -0.016198 -0.005139 0.000000
-0.015649 -0.028511 0.009704 0.000000
0.035178 -0.016121 -0.003160 0.000000
0.035214 -0.016039 -0.001184 0.000000
0.033668 0.001131 -0.010381 0.000000
0.035242 -0.016063 -0.000683 0.000000
-0.000760 -0.028504 0.001092 0.000000
0.035390 -0.016284 0.000848 0.000000
0.031994 0.025057 0.010561 0.000000
0.035177 -0.015668 0.002227 0.000000
0.021381 0.006896 0.010684 0.000000
0.035026 -0.015073 0.005101 0.000000
-0.002902 -0.028562 0.002533 0.000000
0.029065 -0.026313 0.010565 0.000000
-0.012446 -0.028604 -0.005425 0.000000
0.034998 -0.014965 0.005579 0.000000
0.034806 -0.014398 0.006973 0.000000
0.033796 -0.024025 0.009867 0.000000
0.027724 -0.028082 -0.003320 0.000000
0.023916 -0.028266 -0.007381 0.000000
0.008337 -0.024707 0.010773 0.000000
-0.007905 -0.028549 -0.005750 0.000000
-0.003466 -0.028530 -0.007587 0.000000
0.034217 0.019263 0.008729 0.000000
0.033839 -0.011908 0.009555 0.000000
0.029555 -0.001756 0.010517 0.000000
0.032988 -0.012373 0.010099 0.000000
0.035294 0.007414 -0.000493 0.000000
-0.005436 -0.025180 0.010491 0.000000
0.016219 0.020129 0.011454 0.000000
0.020070 0.002203 0.010782 0.000000
0.004926 0.020389 0.011755 0.000000
0.023856 -0.005065 0.010852 0.000000
0.018150 0.025128 0.011373 0.000000
-0.000037 -0.028449 -0.005933 0.000000
0.023357 -0.028350 -0.008870 0.000000
0.032949 -0.027517 0.002145 0.000000
-0.006958 -0.028610 0.000380 0.000000
0.024216 -0.028106 0.001439 0.000000
0.034066 -0.012801 -0.009818 0.000000
-0.023075 -0.028876 0.008540 0.000000
0.034442 -0.010923 -0.007123 0.000000
0.034274 -0.013159 -0.008232 0.000000
0.013650 -0.012941 0.011220 0.000000
0.002267 -0.018251 0.011199 0.000000
0.034450 -0.013484 -0.007160 0.000000
0.034530 -0.013630 -0.006628 0.000000
0.024985 -0.028264 -0.007332 0.000000
-0.023721 -0.028940 0.006999 0.000000
0.022881 -0.025550 0.010778 0.000000
0.010587 -0.028246 0.008881 0.000000
0.034569 -0.025926 0.008239 0.000000
0.035205 -0.014825 -0.001890 0.000000
0.035257 -0.014904 -0.001376 0.000000
-0.004548 -0.028530 -0.006622 0.000000
0.019487 -0.011232 0.011114 0.000000
0.035282 -0.014923 -0.000874 0.000000
0.002024 -0.028539 -0.010362 0.000000
0.034342 -0.028115 -0.009364 0.000000
0.013155 -0.028278 -0.006384 0.000000
0.035404 -0.015043 0.001139 0.000000
0.035157 -0.014263 0.003489 0.000000
0.035259 -0.008392 0.000539 0.000000
0.035427 0.022412 -0.003976 0.000000
0.035076 -0.013951 0.004927 0.000000
0.031184 -0.025185 0.010455 0.000000
0.034987 -0.013622 0.006363 0.000000
0.033653 -0.003774 0.009883 0.000000
-0.021734 -0.028868 0.001932 0.000000
0.010862 -0.028273 0.002960 0.000000
0.025921 -0.028118 0.003943 0.000000
-0.005088 -0.028532 -0.006138 0.000000
0.004242 -0.007518 0.011266 0.000000
0.034646 -0.012705 0.007705 0.000000
-0.019892 -0.028849 0.003526 0.000000
0.024834 -0.025160 0.010771 0.000000
0.034357 -0.011952 0.008580 0.000000
0.034964 -0.009779 0.006274 0.000000
0.030261 -0.028187 -0.007102 0.000000
0.033950 -0.010923 0.009414 0.000000
0.031225 -0.004412 0.010422 0.000000
0.034675 -0.017662 -0.005890 0.000000
0.035336 0.019851 -0.002493 0.000000
0.004245 -0.028502 -0.010261 0.000000
0.012609 -0.028282 -0.006407 0.000000
-0.025149 -0.028960 0.002857 0.000000
-0.023238 -0.028578 -0.010026 0.000000
0.008197 -0.028345 0.003874 0.000000
0.031616 -0.011645 0.010458 0.000000
0.029988 -0.001487 0.010489 0.000000
0.035287 0.019773 -0.005153 0.000000
0.035179 -0.001877 -0.002067 0.000000
-0.013830 -0.028575 -0.009072 0.000000
-0.001079 -0.028459 -0.004463 0.000000
0.031627 -0.027996 -0.003658 0.000000
0.013519 -0.028329 -0.010843 0.000000
-0.019571 -0.026689 0.010351 0.000000
0.028618 0.001744 0.010518 0.000000
0.002374 -0.028194 -0.010916 0.000000
0.033861 -0.028254 -0.009849 0.000000
0.024597 0.011243 0.010681 0.000000
0.003692 -0.028514 -0.010286 0.000000
0.035152 -0.008508 -0.003988 0.000000
0.023310 -0.028137 0.004834 0.000000
-0.006177 -0.028637 0.003944 0.000000
0.009260 -0.028317 0.003409 0.000000
0.034863 -0.025618 0.005779 0.000000
0.035127 0.026815 0.005015 0.000000
-0.003766 -0.025119 0.010525 0.000000
0.015703 0.019976 0.011465 0.000000
0.021682 -0.001420 0.010805 0.000000
0.022424 0.016394 0.010999 0.000000
0.018664 0.025291 0.011361 0.000000
0.034385 -0.027053 0.004057 0.000000
0.000519 -0.028436 -0.005911 0.000000
0.034444 -0.026801 -0.005216 0.000000
0.023890 -0.028342 -0.008846 0.000000
-0.004267 -0.028410 -0.010692 0.000000
0.010967 -0.028295 -0.006478 0.000000
-0.021662 -0.028881 0.002961 0.000000
-0.006363 -0.028591 -0.009232 0.000000
0.008744 -0.028337 0.003891 0.000000
-0.004320 -0.023017 0.010710 0.000000
0.034163 -0.011693 -0.009012 0.000000
0.031809 -0.018241 0.010428 0.000000
0.034296 -0.011921 -0.007956 0.000000
0.032970 -0.019708 0.010181 0.000000
-0.002428 0.019462 0.011743 0.000000
0.034524 -0.012367 -0.006858 0.000000
-0.022994 -0.028714 -0.007403 0.000000
0.005386 -0.028546 -0.010198 0.000000
0.007699 -0.028336 -0.006116 0.000000
0.032868 0.022818 0.010342 0.000000
0.034554 -0.012396 -0.006348 0.000000
0.018021 -0.028289 -0.007154 0.000000
0.034589 -0.012437 -0.005837 0.000000
0.035147 -0.013695 -0.005087 0.000000
0.034593 -0.013821 0.007871 0.000000
0.030073 -0.022693 0.010545 0.000000
0.035222 -0.013747 -0.003574 0.000000
0.019938 -0.021559 0.011104 0.000000
-0.019017 -0.028775 -0.000546 0.000000
0.035236 -0.013657 -0.002089 0.000000
0.021226 -0.028345 -0.008479 0.000000
0.033680 -0.027519 -0.006093 0.000000
0.035244 -0.013592 -0.001101 0.000000
0.035293 -0.013625 -0.000096 0.000000
0.035336 -0.013684 0.000414 0.000000
0.035208 -0.012507 -0.004293 0.000000
0.020508 -0.028147 0.001801 0.000000
0.033834 0.017448 0.009500 0.000000
0.028538 -0.010740 0.010754 0.000000
0.034241 -0.010392 0.008845 0.000000
-0.008090 -0.028628 0.000342 0.000000
0.023684 -0.028110 0.001420 0.000000
-0.016450 0.021765 0.011188 0.000000
0.017144 0.024745 0.011405 0.000000
0.035342 -0.013616 0.001400 0.000000
0.035161 -0.004476 -0.002141 0.000000
-0.009791 -0.028564 -0.008887 0.000000
-0.005010 -0.028522 -0.004617 0.000000
0.027710 -0.028094 -0.003808 0.000000
0.035488 -0.020167 0.001498 0.000000
-0.017137 0.004202 0.010777 0.000000
0.035135 -0.012888 0.004264 0.000000
0.034900 -0.012136 0.006631 0.000000
0.034859 -0.012000 0.007107 0.000000
-0.019509 0.014482 0.010983 0.000000
0.025378 0.000278 0.010650 0.000000
0.016944 -0.028307 -0.007200 0.000000
0.001791 0.000942 0.011086 0.000000
0.019114 0.009494 0.010806 0.000000
0.020177 -0.028316 -0.007545 0.000000
-0.023244 -0.028438 0.010002 0.000000
0.034044 -0.009891 0.009266 0.000000
0.033864 0.026117 -0.008430 0.000000
0.000025 -0.028034 0.010049 0.000000
0.033276 -0.008014 0.009977 0.000000
0.031624 -0.004072 0.010383 0.000000
0.023432 0.016711 0.010976 0.000000
0.029058 0.002008 0.010491 0.000000
0.034476 -0.009659 -0.006340 0.000000
0.022923 -0.028165 -0.004490 0.000000
0.035293 -0.019925 -0.001011 0.000000
0.025093 0.011404 0.010670 0.000000
0.035150 -0.019229 0.003299 0.000000
0.035301 0.012891 -0.001374 0.000000
0.023840 -0.028130 0.004851 0.000000
-0.006741 -0.028644 0.003926 0.000000
0.008715 -0.028329 0.003392 0.000000
0.035284 0.015931 0.000781 0.000000
0.035254 -0.018868 -0.004160 0.000000
0.032401 -0.027755 -0.001235 0.000000
0.034176 -0.011489 0.009005 0.000000
0.001804 -0.028514 0.007181 0.000000
0.034329 -0.022004 -0.008570 0.000000
0.034116 -0.026825 -0.000357 0.000000
0.034133 -0.026698 0.001565 0.000000
0.035029 -0.012172 -0.005363 0.000000
0.032306 0.018535 0.010377 0.000000
0.012739 -0.000307 0.010970 0.000000
-0.017424 -0.028815 0.006147 0.000000
0.035141 -0.012227 -0.002840 0.000000
0.034471 -0.004553 0.008498 0.000000
-0.000434 -0.025009 0.010594 0.000000
0.034592 0.016790 0.007498 0.000000
0.035143 -0.011742 0.003085 0.000000
-0.003835 -0.028622 0.005525 0.000000
0.004559 -0.028461 0.007254 0.000000
0.028674 -0.028132 0.006466 0.000000
0.035462 -0.021355 0.001204 0.000000
0.035138 -0.011648 0.004069 0.000000
-0.005050 -0.028621 0.003978 0.000000
0.006524 -0.028364 0.003323 0.000000
0.035113 -0.011547 0.004552 0.000000
0.032679 -0.006579 0.010260 0.000000
0.003749 -0.028415 0.002738 0.000000
0.034812 -0.010597 0.007393 0.000000
0.034538 -0.009874 0.008277 0.000000
0.034102 -0.008771 0.009104 0.000000
0.015377 -0.028210 -0.004808 0.000000
0.033476 -0.007221 0.009868 0.000000
0.035383 0.008800 0.002414 0.000000
0.035372 0.008787 0.001895 0.000000
0.010960 0.018803 0.011531 0.000000
-0.005882 -0.028532 -0.010238 0.000000
0.000848 -0.028458 0.000139 0.000000
0.019089 -0.028347 -0.008085 0.000000
0.026666 0.008996 0.010508 0.000000
0.034955 -0.012304 0.006160 0.000000
0.008763 0.006986 0.010934 0.000000
0.025584 0.011577 0.010656 0.000000
0.002882 -0.028492 0.006711 0.000000
0.034387 -0.027935 0.007578 0.000000
0.035179 -0.009267 0.003193 0.000000
0.035387 0.022717 -0.001343 0.000000
0.021206 0.022021 0.011297 0.000000
0.031822 -0.028058 -0.006077 0.000000
0.013582 -0.028198 0.003536 0.000000
0.034195 -0.009167 -0.008466 0.000000
-0.016167 0.017586 0.011188 0.000000
0.024577 -0.028092 -0.002469 0.000000
0.034406 -0.009580 -0.007368 0.000000
0.035154 -0.011166 -0.005034 0.000000
0.033547 0.018204 0.009918 0.000000
0.034574 0.018682 -0.005531 0.000000
0.035177 -0.011057 -0.003041 0.000000
0.034484 -0.025921 -0.007822 0.000000
0.031474 -0.028027 -0.001224 0.000000
0.035265 -0.011058 -0.000527 0.000000
0.035185 -0.011198 -0.004524 0.000000
0.022046 0.013251 0.010884 0.000000
0.035398 0.027743 0.007043 0.000000
0.035255 -0.010830 0.001941 0.000000
0.035290 -0.023769 -0.003285 0.000000
0.034805 -0.020607 0.006451 0.000000
0.030124 0.007383 0.010284 0.000000
0.013297 0.004645 0.010822 0.000000
0.011564 -0.009752 0.011230 0.000000
0.019482 -0.028162 0.002749 0.000000
0.034327 -0.013123 0.008752 0.000000
0.034860 -0.009452 0.007222 0.000000
0.034545 -0.008630 0.008093 0.000000
0.031992 -0.027926 -0.000249 0.000000
-0.025720 0.012118 0.010626 0.000000
0.006310 0.012267 0.011236 0.000000
0.034694 -0.026226 -0.005799 0.000000
0.016231 -0.028146 0.002632 0.000000
0.029475 -0.028050 0.001136 0.000000
0.033992 -0.007207 0.009376 0.000000
-0.016879 -0.019091 0.010861 0.000000
0.033232 -0.005338 0.010096 0.000000
-0.010763 0.007066 0.011058 0.000000
0.025262 0.004411 0.010590 0.000000
0.003984 -0.028472 0.006741 0.000000
0.035304 0.003595 0.003216 0.000000
0.034410 -0.017079 0.008355 0.000000
0.032443 -0.003441 0.010313 0.000000
0.035124 -0.022860 0.002910 0.000000
0.001224 -0.028522 0.006666 0.000000
0.033823 -0.027840 0.007546 0.000000
-0.004760 0.010647 0.011236 0.000000
0.033857 -0.007226 -0.010366 0.000000
0.034187 -0.007879 -0.008703 0.000000
0.035176 0.002084 -0.002730 0.000000
0.034694 -0.010280 0.007842 0.000000
0.015179 0.000546 0.010905 0.000000
0.018074 -0.028215 -0.005185 0.000000
0.034273 -0.008040 -0.008161 0.000000
-0.018623 -0.028717 -0.003102 0.000000
0.013299 -0.028146 -0.001929 0.000000
0.011034 -0.028238 -0.004492 0.000000
-0.000654 -0.028498 -0.007466 0.000000
0.034344 -0.008164 -0.007628 0.000000
0.035177 0.026606 0.003970 0.000000
0.035173 -0.024159 0.003125 0.000000
0.013660 -0.028517 -0.009802 0.000000
0.006723 -0.028305 -0.003163 0.000000
0.034760 -0.026766 0.003538 0.000000
-0.010051 -0.009041 0.011160 0.000000
0.007717 -0.028323 -0.005618 0.000000
0.014732 -0.028427 -0.009269 0.000000
-0.010881 -0.028570 -0.007915 0.000000
0.011134 -0.028292 0.008411 0.000000
0.009390 0.015774 0.011364 0.000000
0.035254 -0.009731 -0.000247 0.000000
-0.000026 -0.028526 0.004128 0.000000
0.035210 0.008782 -0.003328 0.000000
0.020751 -0.010394 0.011025 0.000000
0.013799 0.004796 0.010812 0.000000
0.007918 0.012589 0.011224 0.000000
0.034386 -0.008216 0.008529 0.000000
0.025805 -0.008230 0.010836 0.000000
-0.019313 -0.028838 0.003543 0.000000
-0.003430 -0.028579 0.003020 0.000000
0.035033 -0.008719 0.005612 0.000000
-0.001317 -0.028513 0.001073 0.000000
0.033720 0.022019 -0.009353 0.000000
0.034982 0.022790 0.005056 0.000000
0.035317 -0.017423 0.000046 0.000000
0.033871 -0.005610 0.009646 0.000000
0.034583 -0.014991 -0.006379 0.000000
0.033441 -0.004555 0.009989 0.000000
0.024288 0.007990 0.010596 0.000000
0.031656 -0.007973 0.010434 0.000000
0.028728 -0.028121 0.007920 0.000000
0.034722 -0.011637 0.007547 0.000000
0.035308 0.008823 0.000324 0.000000
0.027569 0.009512 0.010456 0.000000
0.033903 -0.023087 0.009730 0.000000
0.026533 0.012000 0.010618 0.000000
0.025447 0.014607 0.010769 0.000000
0.024407 0.017107 0.010942 0.000000
-0.022818 -0.028349 -0.010567 0.000000
0.032872 -0.027921 0.008977 0.000000
0.022200 0.022406 0.011265 0.000000
-0.003991 -0.028588 0.003002 0.000000
0.035181 0.007490 -0.003114 0.000000
0.020610 0.026206 0.011276 0.000000
-0.007259 -0.020741 0.010817 0.000000
0.035308 0.015670 -0.001821 0.000000
0.035074 -0.021426 0.004142 0.000000
-0.009687 0.003805 0.010985 0.000000
0.034274 -0.014442 -0.008497 0.000000
0.034128 -0.006463 -0.008966 0.000000
0.004583 -0.028458 0.007751 0.000000
0.019785 -0.025812 0.010735 0.000000
0.018305 -0.028142 0.000736 0.000000
-0.020191 -0.028632 -0.008841 0.000000
-0.009525 -0.028574 -0.004289 0.000000
0.034296 -0.009362 -0.007919 0.000000
0.034880 0.014590 0.006767 0.000000
0.016066 -0.022548 0.011151 0.000000
0.034200 -0.006592 -0.008429 0.000000
0.024469 -0.028215 -0.006381 0.000000
0.013485 -0.028190 0.001554 0.000000
0.035134 -0.017936 0.003582 0.000000
0.034394 -0.006925 -0.006833 0.000000
0.034806 -0.018112 0.007047 0.000000
-0.022052 -0.028584 -0.009969 0.000000
0.034481 -0.007090 -0.006292 0.000000
0.030853 -0.028115 -0.004646 0.000000
0.024509 0.014143 0.010813 0.000000
0.031600 -0.028052 0.001700 0.000000
-0.018737 -0.028826 0.003560 0.000000
-0.002870 -0.028570 0.003037 0.000000
0.034619 -0.007373 -0.005728 0.000000
0.012130 0.016183 0.011362 0.000000
0.023152 -0.028115 0.001401 0.000000
0.010560 -0.028146 0.009359 0.000000
0.035032 -0.023719 0.004509 0.000000
0.035160 -0.008609 -0.004981 0.000000
-0.003889 0.013757 0.011379 0.000000
0.035177 -0.008609 -0.004475 0.000000
-0.022412 -0.028700 -0.007380 0.000000
0.035130 -0.008415 -0.003499 0.000000
0.035309 0.024567 0.001051 0.000000
0.035152 -0.008386 -0.002493 0.000000
0.009505 -0.028276 0.008856 0.000000
0.035184 -0.008420 -0.001981 0.000000
0.035300 -0.008449 0.001054 0.000000
0.035035 -0.007413 0.005915 0.000000
0.034948 -0.007127 0.006875 0.000000
0.035290 0.015876 0.000261 0.000000
0.026815 0.000797 0.010610 0.000000
0.034086 -0.016638 -0.010096 0.000000
0.034420 -0.005713 0.008666 0.000000
0.027070 -0.028336 -0.009186 0.000000
0.028016 0.009781 0.010429 0.000000
-0.003779 -0.028493 -0.002549 0.000000
0.028815 -0.028022 -0.001819 0.000000
0.035284 0.018758 0.000342 0.000000
0.008964 -0.028263 -0.002081 0.000000
0.033954 0.011529 0.009272 0.000000
0.035332 0.004743 0.001490 0.000000
0.034287 0.010811 -0.006855 0.000000
0.034267 0.003959 -0.007230 0.000000
-0.006803 -0.028634 0.002914 0.000000
0.006318 -0.002410 0.011121 0.000000
0.034356 -0.028104 -0.008878 0.000000
0.022876 0.007350 0.010654 0.000000
-0.021867 0.026147 0.010517 0.000000
0.033367 -0.028404 -0.010821 0.000000
0.003632 0.011710 0.011258 0.000000
-0.014443 -0.028572 -0.009614 0.000000
0.023615 0.023160 0.011192 0.000000
-0.008922 -0.028574 -0.003756 0.000000
0.023498 -0.028117 -0.003000 0.000000
0.035158 -0.012186 -0.001844 0.000000
0.034506 0.010353 -0.005715 0.000000
0.035190 -0.004055 0.003888 0.000000
0.034230 0.012331 -0.007119 0.000000
0.035406 -0.017505 0.001546 0.000000
0.026134 -0.018654 0.010838 0.000000
0.002832 0.001191 0.011074 0.000000
0.035343 0.008819 0.001369 0.000000
0.033295 -0.015575 0.010076 0.000000
0.003348 -0.028466 0.005227 0.000000
0.034896 -0.021843 -0.005614 0.000000
0.001631 -0.028482 0.004176 0.000000
0.032592 0.012221 0.010191 0.000000
0.035375 -0.021115 0.001651 0.000000
0.035287 0.000897 0.002608 0.000000
0.034423 0.011618 0.007705 0.000000
0.034793 -0.027557 0.008977 0.000000
0.035288 -0.021246 -0.002259 0.000000
0.013628 0.016740 0.011317 0.000000
0.014834 -0.028215 -0.004830 0.000000
0.034040 0.012687 0.009113 0.000000
0.035261 0.003373 -0.000876 0.000000
-0.008429 -0.018567 0.010988 0.000000
0.034804 -0.019359 0.006747 0.000000
0.004994 -0.028424 0.005273 0.000000
0.031927 -0.027911 -0.001713 0.000000
-0.007615 -0.009207 0.011238 0.000000
0.031062 -0.028088 0.000958 0.000000
0.033448 0.014234 0.009933 0.000000
0.034673 0.001468 0.007625 0.000000
0.034733 0.022106 0.006749 0.000000
-0.009758 -0.028662 0.000793 0.000000
0.035186 -0.001325 0.004992 0.000000
-0.007275 -0.028657 0.004415 0.000000
0.034242 -0.011836 -0.008478 0.000000
0.029861 0.023273 0.010758 0.000000
0.032080 -0.027954 0.001702 0.000000
0.030772 0.011220 0.010290 0.000000
-0.013088 -0.028721 0.002207 0.000000
0.018423 -0.028157 0.003203 0.000000
0.028596 0.026445 0.010850 0.000000
-0.019263 -0.028242 0.010077 0.000000
0.014584 -0.012570 0.011189 0.000000
0.033855 0.013095 -0.009385 0.000000
0.034795 -0.016869 0.006856 0.000000
0.025000 -0.028208 -0.006358 0.000000
0.035263 0.011357 -0.004280 0.000000
0.035225 -0.008436 -0.000967 0.000000
0.034610 0.009749 0.007456 0.000000
0.027376 0.015412 0.010699 0.000000
0.006812 -0.028391 0.008797 0.000000
0.032876 -0.027521 0.000201 0.000000
0.020064 -0.028162 0.003751 0.000000
0.029439 0.010392 0.010375 0.000000
0.033709 0.012172 0.009699 0.000000
0.035322 0.020006 -0.000918 0.000000
0.035175 -0.006714 0.002787 0.000000
0.035283 0.015975 0.001303 0.000000
0.017739 -0.028136 0.000221 0.000000
-0.023546 -0.028897 0.000848 0.000000
-0.013339 -0.028769 0.007276 0.000000
0.034614 -0.026561 0.002045 0.000000
0.018126 -0.028199 0.008107 0.000000
0.012433 -0.028224 0.002017 0.000000
0.026431 -0.028115 0.003472 0.000000
0.035337 0.006199 0.002815 0.000000
0.035156 0.010162 -0.005133 0.000000
0.003391 -0.028369 -0.003789 0.000000
0.022039 -0.028116 0.000379 0.000000
0.034002 -0.026818 -0.003282 0.000000
-0.018682 -0.028238 0.010092 0.000000
0.013437 0.008112 0.010877 0.000000
0.035072 -0.027302 0.005570 0.000000
0.035307 0.010154 -0.000410 0.000000
0.033693 -0.009029 0.009632 0.000000
0.033764 0.026333 -0.009014 0.000000
-0.014484 -0.028579 0.009239 0.000000
-0.011470 -0.023569 0.010612 0.000000
0.028695 -0.028134 0.006952 0.000000
0.019019 -0.027645 0.010007 0.000000
0.034481 0.012851 0.007530 0.000000
-0.017354 -0.028730 -0.001514 0.000000
0.035250 -0.000535 0.000273 0.000000
-0.020204 -0.028831 0.008104 0.000000
0.027158 -0.014947 0.010824 0.000000
0.034925 -0.010903 0.006943 0.000000
0.023071 -0.028101 -0.000320 0.000000
-0.002944 -0.028547 -0.008573 0.000000
0.027629 0.021746 0.010918 0.000000
0.035069 0.011271 0.006205 0.000000
0.034044 -0.006306 -0.009508 0.000000
0.004936 -0.028410 0.004273 0.000000
-0.000982 -0.003996 0.011182 0.000000
0.035354 0.019765 -0.003012 0.000000
0.035075 -0.015227 0.004631 0.000000
0.007094 -0.028383 -0.007637 0.000000
0.034004 0.005950 0.009536 0.000000
0.035071 -0.004939 0.005539 0.000000
-0.019032 -0.026612 0.010354 0.000000
0.035144 0.008271 0.005607 0.000000
0.007527 -0.028433 -0.010617 0.000000
0.013702 -0.028275 -0.006360 0.000000
0.034290 -0.023194 -0.009332 0.000000
0.015858 -0.028312 -0.007249 0.000000
0.034935 0.024434 0.005888 0.000000
0.031487 0.008110 0.010213 0.000000
-0.021170 -0.003987 0.010741 0.000000
0.035259 -0.025867 -0.000478 0.000000
0.005208 -0.028353 -0.000715 0.000000
0.011785 0.004198 0.010851 0.000000
0.033163 0.023383 -0.010153 0.000000
0.031337 -0.028205 0.006561 0.000000
0.030273 -0.028129 -0.006134 0.000000
0.026973 -0.003397 0.010689 0.000000
0.027122 -0.028187 -0.006266 0.000000
0.017474 -0.028325 -0.007669 0.000000
0.034085 0.011228 -0.007989 0.000000
-0.008287 -0.028331 0.009873 0.000000
0.027528 -0.007188 0.010729 0.000000
0.007616 -0.027675 0.010198 0.000000
0.016856 0.012034 0.010944 0.000000
0.016458 -0.028195 0.007076 0.000000
0.029000 0.026867 0.010802 0.000000
-0.002390 -0.012536 0.011303 0.000000
0.025710 0.020853 0.011000 0.000000
0.035198 -0.012524 -0.004792 0.000000
0.033743 0.014763 -0.009685 0.000000
0.020227 -0.028195 -0.005095 0.000000
0.034282 0.013629 -0.006812 0.000000
0.035029 0.008594 0.006075 0.000000
-0.010705 -0.028709 0.003806 0.000000
0.004877 -0.028395 0.003272 0.000000
0.034568 -0.022380 0.007695 0.000000
0.004998 0.026740 0.011476 0.000000
-0.019421 -0.028815 0.002004 0.000000
0.013022 -0.028215 0.003026 0.000000
0.035069 0.027086 0.006589 0.000000
0.035298 0.011554 -0.000634 0.000000
0.035183 -0.003998 0.004386 0.000000
0.034591 0.008435 0.007644 0.000000
-0.004497 -0.028521 -0.005608 0.000000
0.027939 -0.017903 0.010774 0.000000
0.008205 -0.028362 -0.007340 0.000000
0.035386 0.011539 0.001991 0.000000
-0.017858 -0.028759 -0.000506 0.000000
0.034201 0.018079 -0.007045 0.000000
0.035304 0.011906 0.004027 0.000000
-0.017108 -0.028781 0.002078 0.000000
0.014633 -0.028167 0.003073 0.000000
-0.020287 0.007806 0.010766 0.000000
0.035271 -0.000382 0.002808 0.000000
-0.023228 -0.028822 -0.002753 0.000000
0.035187 0.012317 0.005532 0.000000
0.035111 0.012546 0.006020 0.000000
0.034424 -0.000395 -0.006457 0.000000
-0.018521 -0.028585 -0.009803 0.000000
-0.017616 -0.028804 0.003084 0.000000
0.013073 -0.028223 0.004017 0.000000
0.035305 0.013247 0.003301 0.000000
0.004034 -0.028470 0.007737 0.000000
0.019260 -0.025842 0.010726 0.000000
0.017764 -0.028142 0.000715 0.000000
-0.004085 -0.028639 -0.009623 0.000000
0.027074 -0.028301 -0.008701 0.000000
0.035479 -0.025304 -0.002029 0.000000
0.028198 -0.028132 -0.005248 0.000000
-0.016606 -0.008964 0.011003 0.000000
0.004297 -0.028504 -0.009252 0.000000
0.035158 -0.009708 -0.002771 0.000000
0.034563 -0.013663 -0.006119 0.000000
0.033952 0.015714 0.009214 0.000000
-0.018153 -0.028680 -0.004628 0.000000
0.033998 -0.014785 0.009485 0.000000
0.033722 0.016330 0.009651 0.000000
0.035363 -0.021171 0.000679 0.000000
-0.024202 -0.028895 -0.000204 0.000000
0.007481 -0.028316 0.000860 0.000000
0.030641 -0.019200 0.010538 0.000000
-0.024500 -0.028949 0.003903 0.000000
0.001602 -0.028477 0.003674 0.000000
0.006610 -0.028385 0.004821 0.000000
0.032853 -0.027674 0.004590 0.000000
0.022095 0.010476 0.010734 0.000000
0.033311 0.017392 0.010024 0.000000
0.035304 -0.003194 0.001724 0.000000
-0.022930 -0.028889 0.001382 0.000000
0.035219 -0.008462 -0.001468 0.000000
0.035370 -0.018726 0.000761 0.000000
0.013213 -0.020055 0.011218 0.000000
-0.019216 -0.004237 0.010818 0.000000
0.031250 0.011413 0.010274 0.000000
-0.019523 -0.028803 0.000464 0.000000
-0.005996 -0.028544 -0.002123 0.000000
0.034858 -0.004310 0.006956 0.000000
0.020041 -0.028159 0.003259 0.000000
0.006779 -0.020499 0.011125 0.000000
0.035192 -0.012224 -0.001335 0.000000
0.034978 0.021364 0.005263 0.000000
0.031790 0.021263 0.010530 0.000000
0.035285 0.006083 -0.000279 0.000000
0.012591 -0.028258 0.004995 0.000000
0.009216 -0.028485 -0.010525 0.000000
0.034008 0.015624 -0.008229 0.000000
-0.020447 -0.019043 0.010769 0.000000
0.034409 0.016230 -0.005658 0.000000
0.034330 -0.025308 0.009105 0.000000
-0.000014 -0.028442 -0.005429 0.000000
0.035157 -0.001907 -0.003086 0.000000
0.034995 -0.006001 0.006203 0.000000
0.035261 0.013437 0.004320 0.000000
0.035372 0.010155 0.001682 0.000000
0.010123 -0.028147 -0.011047 0.000000
0.034906 -0.019408 -0.005563 0.000000
0.034299 0.027764 0.008631 0.000000
0.035283 0.002312 0.003414 0.000000
-0.009825 -0.028648 -0.000225 0.000000
0.005151 -0.028435 0.008261 0.000000
0.035192 0.001331 0.005100 0.000000
-0.013329 -0.028581 0.009271 0.000000
-0.010369 -0.023475 0.010625 0.000000
0.021805 -0.028166 0.006745 0.000000
0.017997 -0.027758 0.009996 0.000000
0.034351 0.012074 -0.006542 0.000000
0.035035 -0.026376 0.001544 0.000000
0.035290 0.012717 -0.003979 0.000000
0.022830 -0.028325 -0.008407 0.000000
0.033414 -0.028258 -0.007918 0.000000
0.035259 -0.019602 0.001888 0.000000
0.035278 0.012828 -0.002944 0.000000
0.018546 -0.003124 0.010972 0.000000
0.025187 -0.004341 0.010781 0.000000
0.014662 0.017030 0.011298 0.000000
-0.004962 0.007444 0.011124 0.000000
0.025563 -0.026752 0.010537 0.000000
0.009397 -0.028269 -0.004556 0.000000
0.035238 -0.011076 -0.001528 0.000000
0.035122 0.015301 0.005618 0.000000
0.027367 -0.028065 0.001060 0.000000
0.020818 -0.025724 0.010749 0.000000
0.034243 -0.005254 0.009099 0.000000
0.035332 0.013016 0.001236 0.000000
0.018329 0.017920 0.011249 0.000000
0.035216 -0.009929 -0.003738 0.000000
0.035501 0.026877 -0.000915 0.000000
0.035261 -0.002970 0.003213 0.000000
0.032016 0.015046 0.010317 0.000000
0.035347 0.013061 0.002280 0.000000
-0.019675 -0.028843 0.007102 0.000000
-0.013154 -0.028709 0.001187 0.000000
0.034689 -0.026236 0.007806 0.000000
0.017839 -0.028159 0.002199 0.000000
0.012733 -0.028259 0.007959 0.000000
0.008179 -0.028478 -0.009073 0.000000
0.034976 0.003303 0.006338 0.000000
0.033852 0.004984 0.009668 0.000000
0.035195 0.013684 0.005331 0.000000
-0.009929 -0.028617 -0.001757 0.000000
0.006773 -0.028305 -0.002161 0.000000
0.022516 -0.028103 -0.000832 0.000000
0.034729 0.026499 0.006664 0.000000
0.035469 0.025373 -0.002299 0.000000
0.035261 -0.005678 0.002119 0.000000
-0.012859 -0.028632 -0.002887 0.000000
0.019787 -0.028130 -0.002165 0.000000
0.020482 0.012909 0.010899 0.000000
0.034332 0.013262 0.007992 0.000000
0.000091 -0.028439 -0.003410 0.000000
0.032351 -0.027770 -0.002694 0.000000
0.029381 0.023048 0.010778 0.000000
-0.002193 0.007852 0.011125 0.000000
-0.008437 -0.028670 0.003875 0.000000
0.029888 0.010656 0.010349 0.000000
0.031934 0.008370 0.010187 0.000000
0.034203 -0.002546 0.009214 0.000000
-0.006078 -0.028664 0.005461 0.000000
0.007291 -0.028392 0.007325 0.000000
0.025497 -0.028126 0.006366 0.000000
0.009682 -0.017373 0.011251 0.000000
0.035235 -0.005780 0.000109 0.000000
0.034180 0.022497 -0.006722 0.000000
0.035507 0.023617 -0.004708 0.000000
0.027128 0.005258 0.010513 0.000000
0.035295 0.012663 -0.004497 0.000000
-0.011872 -0.028598 -0.005402 0.000000
0.035330 -0.018551 0.001716 0.000000
0.035301 0.011385 -0.002706 0.000000
0.035033 -0.018837 0.004708 0.000000
0.017607 -0.028141 -0.002746 0.000000
0.033956 0.025923 -0.007850 0.000000
0.035274 0.011289 -0.004794 0.000000
0.035231 -0.011225 -0.003512 0.000000
0.033934 0.017213 -0.008509 0.000000
-0.009294 -0.028718 0.008393 0.000000
-0.022429 0.004935 0.010567 0.000000
0.022368 -0.028004 0.009176 0.000000
0.016132 -0.027221 0.010357 0.000000
-0.025571 -0.028488 0.009949 0.000000
0.035285 0.014123 -0.004213 0.000000
0.035188 0.017785 0.003140 0.000000
0.035224 0.004640 -0.003157 0.000000
-0.001951 -0.004375 0.011213 0.000000
-0.014284 -0.028586 -0.007042 0.000000
-0.013020 0.013844 0.011192 0.000000
0.034635 -0.027351 -0.006569 0.000000
-0.004574 -0.028533 -0.007129 0.000000
0.035111 0.009756 0.005907 0.000000
0.035214 -0.014519 0.002041 0.000000
0.035279 0.014299 -0.002129 0.000000
0.035219 -0.000581 -0.001257 0.000000
0.025146 -0.028080 -0.001468 0.000000
0.035296 0.014297 -0.001601 0.000000
0.035268 0.000781 0.000574 0.000000
0.034303 -0.020741 -0.008810 0.000000
0.017861 -0.028158 0.002691 0.000000
0.034580 -0.000929 0.007972 0.000000
0.005842 -0.002612 0.011139 0.000000
0.032495 -0.027776 0.000959 0.000000
0.035298 0.014334 -0.001079 0.000000
-0.007146 -0.028685 0.006438 0.000000
0.034604 -0.004909 0.008049 0.000000
0.030356 -0.028011 -0.002734 0.000000
0.035392 0.008819 0.002932 0.000000
-0.020362 -0.028748 -0.003166 0.000000
0.011138 -0.028207 -0.002004 0.000000
0.035263 0.014623 0.001511 0.000000
0.035268 0.000740 0.000067 0.000000
0.035113 0.020899 0.003736 0.000000
0.008602 -0.028299 0.001396 0.000000
0.035063 0.018221 0.004661 0.000000
0.016407 -0.028182 0.006090 0.000000
0.034487 -0.018573 -0.007222 0.000000
0.035269 0.009964 -0.004046 0.000000
0.034285 0.001216 -0.007263 0.000000
-0.008586 -0.028560 -0.007813 0.000000
0.035188 0.015055 0.004604 0.000000
-0.009427 -0.028593 -0.002757 0.000000
0.021932 -0.028116 -0.002081 0.000000
0.034255 -0.027673 -0.006526 0.000000
0.012877 -0.022744 0.011099 0.000000
0.035268 -0.009723 0.000255 0.000000
0.035449 0.022317 -0.004496 0.000000
0.035049 0.015523 0.006110 0.000000
0.030788 0.023800 0.010705 0.000000
0.034915 0.015899 0.006579 0.000000
0.035298 0.010055 -0.001965 0.000000
-0.000059 -0.028457 -0.006437 0.000000
0.023028 0.013617 0.010854 0.000000
0.032292 -0.027893 -0.005599 0.000000
0.035153 -0.016022 -0.002681 0.000000
0.035178 -0.007997 0.002991 0.000000
0.035350 0.021370 -0.001132 0.000000
0.021416 0.016073 0.011022 0.000000
-0.016861 -0.024290 0.010581 0.000000
0.034351 0.017435 0.007929 0.000000
0.034552 -0.027345 0.005077 0.000000
0.016820 -0.028151 0.003639 0.000000
0.034921 -0.026282 -0.000419 0.000000
0.034698 -0.001254 0.007514 0.000000
0.035140 -0.016728 0.003388 0.000000
0.034214 0.017817 0.008401 0.000000
0.035181 -0.007343 -0.004696 0.000000
0.032356 -0.027852 0.009917 0.000000
0.035197 -0.021912 0.001778 0.000000
0.035291 0.009991 -0.003002 0.000000
0.034360 0.016313 -0.006206 0.000000
0.028074 0.015774 0.010665 0.000000
0.033313 0.020103 -0.010111 0.000000
0.033780 0.018973 -0.009357 0.000000
0.035197 -0.011022 -0.002041 0.000000
0.034034 0.007219 0.009358 0.000000
0.035054 -0.016407 0.004817 0.000000
-0.022520 -0.028681 -0.008938 0.000000
-0.008954 -0.028568 -0.004266 0.000000
0.027708 0.018747 0.010787 0.000000
0.035373 0.010235 0.002715 0.000000
0.031465 0.017827 0.010455 0.000000
0.030141 -0.025786 0.010516 0.000000
-0.023821 -0.028456 0.009990 0.000000
0.033331 -0.027244 0.001628 0.000000
0.002357 -0.028504 0.007195 0.000000
0.034381 0.017711 -0.005909 0.000000
0.035277 0.024729 0.002100 0.000000
0.035272 0.015515 -0.004976 0.000000
0.007681 -0.006395 0.011186 0.000000
0.034270 0.019367 -0.006727 0.000000
-0.000233 -0.028487 0.000606 0.000000
0.035300 0.015486 -0.004439 0.000000
0.029698 -0.027772 0.009831 0.000000
0.019179 -0.028194 0.007648 0.000000
-0.000929 -0.028391 0.009578 0.000000
0.035296 0.015618 -0.002872 0.000000
0.016540 -0.022402 0.011141 0.000000
0.022441 0.003184 0.010698 0.000000
0.030340 0.023498 0.010737 0.000000
0.034315 0.017836 -0.006466 0.000000
-0.009890 -0.028727 0.007874 0.000000
0.035304 0.015719 -0.001300 0.000000
0.023009 -0.020048 0.010962 0.000000
0.009693 -0.028278 0.001432 0.000000
0.035221 0.008712 -0.003838 0.000000
0.035294 -0.023737 -0.002801 0.000000
0.034904 -0.020915 0.005523 0.000000
0.032420 0.015432 0.010273 0.000000
0.026596 -0.028200 -0.006287 0.000000
0.034417 -0.014689 -0.007442 0.000000
0.035216 -0.017579 -0.004640 0.000000
0.005762 0.012183 0.011236 0.000000
0.020519 -0.028223 -0.011012 0.000000
0.035176 -0.017262 -0.001968 0.000000
0.028780 0.016116 0.010633 0.000000
0.000764 -0.028512 0.008645 0.000000
0.032373 -0.027930 0.009447 0.000000
0.035335 0.011586 0.000935 0.000000
0.028534 -0.028228 -0.011101 0.000000
0.013919 -0.022633 0.011109 0.000000
0.007628 -0.028485 -0.009097 0.000000
0.032533 -0.027795 0.001691 0.000000
-0.014863 -0.028589 -0.007067 0.000000
-0.012408 0.013842 0.011204 0.000000
0.035131 -0.004487 -0.003159 0.000000
0.034955 -0.025592 -0.005416 0.000000
0.013200 -0.028226 -0.004899 0.000000
-0.002931 -0.012604 0.011300 0.000000
0.026199 0.021056 0.010983 0.000000
0.034385 -0.015890 -0.007723 0.000000
0.016022 -0.028137 -0.001822 0.000000
0.035135 -0.014171 0.003970 0.000000
0.035309 0.011608 0.000406 0.000000
-0.020505 -0.028855 0.002996 0.000000
0.011998 -0.028258 0.003987 0.000000
0.034082 0.008452 0.009186 0.000000
0.008564 -0.017371 0.011224 0.000000
0.024740 -0.004575 0.010804 0.000000
-0.019202 -0.028726 -0.003124 0.000000
0.012220 -0.028176 -0.001966 0.000000
0.035214 -0.003266 -0.001833 0.000000
0.034520 0.004574 0.008198 0.000000
0.034843 -0.027709 0.008520 0.000000
0.000004 -0.028532 0.004631 0.000000
0.012802 -0.024827 0.010904 0.000000
0.012032 -0.028366 -0.007913 0.000000
0.035211 -0.000686 -0.002778 0.000000
0.034464 -0.019665 0.008255 0.000000
0.035289 0.002135 0.001386 0.000000
0.035039 0.016951 0.005903 0.000000
-0.022499 -0.028857 0.008553 0.000000
0.002099 -0.028484 -0.008351 0.000000
0.011748 -0.017052 0.011254 0.000000
0.034904 -0.014665 0.006521 0.000000
0.034474 0.003539 -0.006109 0.000000
0.008832 -0.028291 -0.005075 0.000000
0.030176 0.016840 0.010563 0.000000
0.025135 -0.008567 0.010868 0.000000
0.035359 0.011686 0.003015 0.000000
0.019660 0.025694 0.011326 0.000000
0.028654 -0.028130 0.005980 0.000000
0.013211 -0.028266 0.006496 0.000000
0.034327 0.018945 0.008246 0.000000
-0.003720 -0.028632 0.007536 0.000000
0.003144 -0.028422 0.001719 0.000000
0.028743 -0.028111 0.008404 0.000000
0.013511 -0.009135 0.011188 0.000000
0.035115 -0.002416 0.005665 0.000000
-0.020779 -0.028847 0.008090 0.000000
0.026752 -0.015244 0.010857 0.000000
0.023605 -0.028098 -0.000300 0.000000
-0.025745 -0.025185 0.010489 0.000000
0.034182 0.013837 -0.007382 0.000000
0.029862 -0.028001 -0.001781 0.000000
0.033431 0.021360 0.010017 0.000000
0.035284 0.003438 0.000663 0.000000
-0.014659 -0.004880 0.011007 0.000000
0.035179 -0.002610 0.005188 0.000000
0.035312 0.007735 0.004135 0.000000
0.001196 -0.028519 0.006165 0.000000
0.024946 -0.028129 0.005862 0.000000
-0.000315 -0.020916 0.011012 0.000000
0.033574 0.020912 -0.009704 0.000000
0.028173 -0.028164 -0.006223 0.000000
0.013644 0.014081 0.011137 0.000000
0.033967 0.020049 -0.007927 0.000000
0.033519 0.011272 0.009820 0.000000
0.035295 -0.024703 0.000053 0.000000
0.032827 -0.009476 0.010176 0.000000
0.023135 -0.000934 0.010769 0.000000
-0.022140 -0.028778 -0.003746 0.000000
0.030584 -0.028086 0.002155 0.000000
0.033082 0.016567 0.010132 0.000000
-0.000114 -0.028511 0.002621 0.000000
0.035076 -0.008861 0.005134 0.000000
0.009930 0.015874 0.011361 0.000000
-0.011505 -0.028673 0.000224 0.000000
0.021019 -0.028137 0.001327 0.000000
0.000615 -0.028527 0.005649 0.000000
0.032270 -0.027955 0.006551 0.000000
0.008383 -0.028374 0.007354 0.000000
-0.009159 -0.028658 0.001320 0.000000
0.000170 -0.028546 0.007636 0.000000
0.022134 -0.028135 0.002348 0.000000
0.032855 -0.027924 0.008495 0.000000
0.034151 -0.001217 -0.008382 0.000000
0.025632 -0.022255 0.010856 0.000000
0.029456 0.027160 0.010772 0.000000
-0.023886 -0.028818 -0.003810 0.000000
-0.022250 -0.019003 0.010720 0.000000
0.028467 -0.028069 0.002075 0.000000
0.034175 -0.027453 -0.006083 0.000000
0.027261 0.018454 0.010818 0.000000
0.034409 -0.028140 -0.007893 0.000000
0.035157 0.013818 0.005836 0.000000
0.035309 0.002127 0.001902 0.000000
0.027047 -0.028128 0.005442 0.000000
0.014073 -0.028181 0.002562 0.000000
0.034169 0.016708 -0.007345 0.000000
-0.024747 -0.028919 0.000294 0.000000
-0.016268 0.010654 0.011009 0.000000
0.033632 0.026637 0.009845 0.000000
0.028294 -0.028039 -0.001837 0.000000
0.026283 0.000745 0.010605 0.000000
0.035301 0.014609 0.002568 0.000000
0.035047 -0.024936 0.004706 0.000000
0.035127 -0.004641 -0.005171 0.000000
0.034455 -0.025630 0.008674 0.000000
0.035167 0.022158 0.003017 0.000000
0.035182 0.002110 -0.002219 0.000000
-0.023264 0.026395 0.010459 0.000000
0.033870 0.020251 -0.008502 0.000000
-0.009268 -0.028573 -0.009882 0.000000
0.035144 -0.012194 -0.002344 0.000000
0.029240 -0.028004 0.008886 0.000000
0.004409 -0.018027 0.011218 0.000000
0.035207 -0.000472 -0.000251 0.000000
0.035294 0.018814 0.001396 0.000000
0.035300 0.011590 -0.000115 0.000000
-0.001814 -0.028537 0.002064 0.000000
0.004871 0.009084 0.011101 0.000000
0.001879 -0.028508 0.008676 0.000000
0.033419 -0.027935 0.009477 0.000000
0.035275 0.014189 -0.003696 0.000000
0.034353 0.001093 -0.006722 0.000000
-0.016998 -0.028659 -0.004584 0.000000
0.035220 -0.009731 -0.001254 0.000000
0.021378 -0.028125 -0.002594 0.000000
0.033906 0.015838 -0.008803 0.000000
0.034267 0.006610 0.008932 0.000000
-0.012673 -0.028571 -0.009019 0.000000
-0.009264 -0.028721 0.008898 0.000000
-0.001641 -0.028464 -0.004486 0.000000
0.030869 -0.028065 -0.003678 0.000000
0.012361 -0.028213 -0.010923 0.000000
0.034019 -0.000982 -0.009461 0.000000
-0.022491 -0.028675 -0.008421 0.000000
0.012752 -0.028250 0.008451 0.000000
0.007186 -0.028382 0.005336 0.000000
0.035331 0.011796 0.003521 0.000000
0.034277 0.022291 -0.006146 0.000000
0.020910 0.015917 0.011033 0.000000
0.035044 -0.025751 -0.004894 0.000000
0.024371 -0.028126 0.004867 0.000000
0.034493 -0.012308 0.008139 0.000000
0.030747 -0.028264 -0.009022 0.000000
0.035342 -0.014856 0.001603 0.000000
0.035327 0.016950 -0.003088 0.000000
-0.011507 0.003845 0.010942 0.000000
0.033790 0.023321 -0.009036 0.000000
0.000537 0.008316 0.011117 0.000000
0.011537 -0.028288 0.005460 0.000000
0.034703 -0.025065 -0.006013 0.000000
0.017364 0.005733 0.010759 0.000000
0.035124 -0.025152 0.004258 0.000000
-0.010422 -0.028569 -0.009937 0.000000
0.028198 -0.028028 0.008860 0.000000
0.023143 0.022908 0.011216 0.000000
0.026059 0.011788 0.010637 0.000000
0.034825 -0.002622 -0.005536 0.000000
0.025607 -0.028101 -0.003405 0.000000
-0.019582 -0.021586 0.010637 0.000000
0.032317 -0.027821 -0.004148 0.000000
-0.017248 -0.028754 0.000027 0.000000
0.014536 -0.028156 0.001092 0.000000
0.008230 -0.028340 -0.006592 0.000000
-0.017797 -0.004623 0.010903 0.000000
0.035002 0.010065 0.006379 0.000000
0.034320 -0.015782 -0.008245 0.000000
0.030684 -0.028136 0.004108 0.000000
0.034926 0.022973 0.005563 0.000000
0.013133 0.013927 0.011147 0.000000
0.034180 -0.015542 -0.009298 0.000000
0.003837 -0.028435 0.004241 0.000000
0.035149 -0.006571 0.003773 0.000000
-0.012890 -0.028629 -0.003398 0.000000
0.035234 0.024881 0.002613 0.000000
0.020159 -0.028369 -0.008525 0.000000
0.034425 0.010513 -0.006272 0.000000
0.027009 0.012208 0.010600 0.000000
0.034259 0.022000 0.008351 0.000000
-0.017105 -0.028634 -0.006131 0.000000
0.008721 -0.028502 -0.009543 0.000000
0.032394 0.025484 0.010512 0.000000
0.034451 -0.008334 -0.006578 0.000000
0.035225 0.006106 -0.001842 0.000000
-0.004341 -0.028503 -0.002570 0.000000
0.027241 -0.028055 -0.001877 0.000000
0.033177 -0.027316 -0.003228 0.000000
0.035297 0.011475 -0.001671 0.000000
0.024836 -0.028115 0.003417 0.000000
-0.008219 -0.028703 0.007415 0.000000
-0.002405 -0.028538 0.001541 0.000000
0.031654 -0.028087 0.002679 0.000000
0.035227 0.005858 -0.004921 0.000000
0.023456 -0.028136 0.008253 0.000000
0.035250 -0.009558 0.001735 0.000000
0.035402 0.022557 -0.002927 0.000000
-0.004315 -0.025152 0.010516 0.000000
0.015187 0.019823 0.011475 0.000000
-0.021141 0.018767 0.010939 0.000000
0.035440 0.027554 0.005994 0.000000
0.022928 0.016552 0.010988 0.000000
0.035381 0.022771 -0.000816 0.000000
-0.018634 -0.028448 -0.010350 0.000000
0.032658 0.019060 0.010313 0.000000
0.033174 -0.027269 -0.002749 0.000000
0.035339 0.022961 0.000225 0.000000
0.035327 -0.016179 0.000333 0.000000
0.027940 0.012675 0.010556 0.000000
0.027104 -0.007464 0.010758 0.000000
0.005483 -0.027824 0.010163 0.000000
0.015253 0.011758 0.010949 0.000000
0.019448 0.012657 0.010912 0.000000
0.004596 -0.028344 -0.001741 0.000000
0.027810 -0.028051 -0.000878 0.000000
0.034342 -0.004232 -0.007318 0.000000
0.034343 0.026557 -0.005773 0.000000
-0.012800 -0.028450 0.009771 0.000000
0.010186 0.010184 0.011059 0.000000
0.035191 0.023539 0.002812 0.000000
0.035233 0.007443 -0.002062 0.000000
0.020367 0.006632 0.010699 0.000000
0.018872 0.015319 0.011073 0.000000
0.034718 0.008083 0.007180 0.000000
0.019104 -0.028287 -0.007105 0.000000
0.034365 -0.002949 -0.007035 0.000000
-0.020983 -0.028877 0.004517 0.000000
0.033911 0.007394 -0.009421 0.000000
0.035277 0.008778 -0.001235 0.000000
0.034168 0.025465 -0.006681 0.000000
-0.024826 -0.028731 -0.008516 0.000000
-0.013356 -0.028495 -0.010091 0.000000
0.025043 -0.028072 0.008776 0.000000
0.021062 0.026515 0.011244 0.000000
0.004879 0.001752 0.011040 0.000000
0.033636 -0.027006 -0.001317 0.000000
-0.002479 0.010865 0.011251 0.000000
0.002933 -0.028491 0.007708 0.000000
0.034413 -0.027911 0.008539 0.000000
0.034160 -0.006334 0.009254 0.000000
0.016894 -0.028163 0.005119 0.000000
0.013085 -0.028510 -0.010330 0.000000
0.031414 -0.018550 0.010463 0.000000
0.034350 0.024644 0.007987 0.000000
0.027513 -0.028120 0.003997 0.000000
0.003323 -0.028388 -0.005295 0.000000
0.035295 0.017232 -0.000481 0.000000
0.024926 -0.028129 0.005374 0.000000
0.035252 -0.004489 0.000406 0.000000
0.034121 -0.019201 -0.010104 0.000000
0.034633 -0.007571 0.007939 0.000000
0.034868 0.027684 0.007578 0.000000
-0.002561 -0.028412 -0.010609 0.000000
0.015882 -0.028268 -0.006263 0.000000
-0.005934 -0.028521 0.009462 0.000000
0.035324 0.004844 0.002507 0.000000
0.029541 -0.016701 0.010640 0.000000
0.035221 0.009444 0.005435 0.000000
0.034051 0.025722 -0.007270 0.000000
0.035167 0.010987 0.005727 0.000000
0.001685 -0.028003 0.010089 0.000000
0.006170 -0.028410 0.006798 0.000000
0.035271 -0.025853 0.000006 0.000000
0.033679 -0.006430 0.009759 0.000000
-0.017391 -0.028719 -0.002029 0.000000
-0.002090 -0.028477 -0.002485 0.000000
0.013892 -0.028145 -0.000914 0.000000
-0.021936 -0.028669 -0.008914 0.000000
-0.010096 -0.028579 -0.004312 0.000000
0.034038 0.016996 -0.007933 0.000000
-0.024874 -0.028716 0.009489 0.000000
0.034318 0.023671 -0.005836 0.000000
0.033614 -0.027289 -0.005163 0.000000
-0.018810 -0.028808 0.002534 0.000000
0.028608 -0.028117 0.005006 0.000000
0.034758 0.023481 0.006555 0.000000
0.035283 0.018720 -0.000184 0.000000
0.008828 -0.028358 0.005384 0.000000
0.013670 -0.028233 0.005026 0.000000
0.017235 0.020468 0.011428 0.000000
0.033880 0.010344 0.009436 0.000000
0.034568 -0.006103 0.008223 0.000000
0.035310 0.009143 0.004442 0.000000
0.025030 -0.000192 0.010708 0.000000
0.033206 0.027763 0.010224 0.000000
0.035076 -0.000978 0.005956 0.000000
0.033768 0.020467 -0.009081 0.000000
0.034357 0.002408 -0.006953 0.000000
0.024637 -0.028088 -0.000996 0.000000
0.035287 -0.022341 -0.000841 0.000000
0.029063 -0.028088 0.003559 0.000000
-0.010396 -0.028652 -0.000246 0.000000
0.004605 -0.028451 0.008248 0.000000
0.034181 -0.026758 -0.004748 0.000000
0.034242 0.026775 -0.006355 0.000000
0.033924 0.008762 -0.009140 0.000000
0.012588 -0.028332 -0.007395 0.000000
0.035062 -0.010092 0.005323 0.000000
-0.013324 0.003866 0.010901 0.000000
0.030774 0.028170 0.010663 0.000000
0.034053 0.016859 0.009058 0.000000
0.034140 0.011028 0.008825 0.000000
0.034961 -0.017373 0.005459 0.000000
0.034163 0.021064 -0.007019 0.000000
0.020354 -0.028121 -0.001405 0.000000
0.035381 0.010175 0.002202 0.000000
0.034170 0.009645 -0.007709 0.000000
0.001777 -0.028511 0.006681 0.000000
0.007104 0.020823 0.011737 0.000000
0.033245 -0.027714 0.007509 0.000000
0.021978 0.027108 0.011183 0.000000
-0.011457 -0.028571 -0.007941 0.000000
0.035279 0.014461 -0.000045 0.000000
0.033195 0.020536 0.010124 0.000000
0.000116 -0.028543 0.006635 0.000000
0.032749 -0.027773 0.007503 0.000000
0.034447 0.007475 0.008297 0.000000
0.034233 -0.025523 -0.009871 0.000000
0.033997 0.011403 -0.008551 0.000000
0.032924 0.019803 0.010218 0.000000
0.034443 0.006141 0.008487 0.000000
-0.008154 -0.028615 -0.000675 0.000000
0.009438 -0.028254 -0.003559 0.000000
-0.013121 -0.028715 0.001697 0.000000
0.034375 0.014539 0.007812 0.000000
0.035062 -0.012637 0.005219 0.000000
0.007617 -0.026568 0.010530 0.000000
0.031230 -0.028182 0.004134 0.000000
0.035253 0.003800 0.004213 0.000000
0.032856 -0.028102 -0.006998 0.000000
0.033338 -0.027507 0.005547 0.000000
0.035212 0.001833 -0.004751 0.000000
0.035163 -0.005362 0.003078 0.000000
0.035274 -0.011037 -0.000029 0.000000
0.035424 0.020899 -0.004800 0.000000
-0.009392 -0.028603 -0.002246 0.000000
0.035263 -0.004392 0.001914 0.000000
-0.003367 -0.028594 0.004029 0.000000
0.002721 -0.003292 0.011165 0.000000
0.035341 0.003382 0.001705 0.000000
-0.023037 -0.028871 -0.000165 0.000000
0.008575 -0.028294 0.000897 0.000000
0.035193 -0.005474 0.002591 0.000000
0.035107 -0.025853 -0.004385 0.000000
0.002649 -0.028443 0.002705 0.000000
0.035194 0.019187 0.002930 0.000000
0.035236 -0.018662 -0.002218 0.000000
0.034333 -0.006824 -0.007363 0.000000
0.035345 0.010182 0.001155 0.000000
0.026069 -0.028213 -0.006309 0.000000
0.035458 -0.026111 0.002000 0.000000
0.035459 -0.018888 0.001284 0.000000
0.035284 0.012771 -0.003461 0.000000
0.035080 -0.007560 0.005436 0.000000
0.034177 0.016509 0.008583 0.000000
0.035371 0.025826 0.000323 0.000000
-0.012701 -0.000722 0.011007 0.000000
0.035297 0.012984 -0.000337 0.000000
-0.010064 -0.028584 -0.003801 0.000000
0.022431 -0.028125 -0.003043 0.000000
-0.012714 -0.028701 0.008800 0.000000
0.000982 -0.028496 -0.008401 0.000000
0.034011 -0.026797 -0.002799 0.000000
-0.020311 -0.028862 0.006067 0.000000
0.003028 -0.028398 -0.000290 0.000000
0.033453 0.003295 0.009896 0.000000
-0.003781 -0.022962 0.010715 0.000000
0.034206 -0.024278 -0.010113 0.000000
0.014299 0.004952 0.010801 0.000000
0.014610 -0.028166 0.002579 0.000000
0.027491 -0.028117 0.003509 0.000000
-0.021225 -0.028844 0.000922 0.000000
-0.011625 -0.028749 0.007323 0.000000
0.033959 -0.024992 -0.010971 0.000000
0.009721 -0.028284 0.001930 0.000000
0.020800 -0.028171 0.008181 0.000000
-0.004571 0.004285 0.011026 0.000000
0.004055 -0.028461 0.008234 0.000000
0.033945 0.004575 -0.009436 0.000000
0.027561 -0.014644 0.010791 0.000000
-0.006958 -0.028601 -0.009767 0.000000
0.027149 -0.028044 0.008832 0.000000
0.034124 -0.003838 -0.008935 0.000000
-0.003306 0.013791 0.011385 0.000000
0.035277 -0.018674 -0.001226 0.000000
0.035161 -0.015589 0.002709 0.000000
0.035330 0.017022 -0.002038 0.000000
0.015666 0.000718 0.010892 0.000000
0.017533 -0.028218 -0.005208 0.000000
0.033906 -0.028144 -0.007429 0.000000
0.015592 -0.028138 0.000634 0.000000
0.035391 0.022424 -0.005053 0.000000
0.026630 -0.028143 -0.004825 0.000000
0.017596 -0.018909 0.011160 0.000000
0.035263 0.018932 0.001908 0.000000
0.034390 0.027490 0.008132 0.000000
0.008248 0.006849 0.010942 0.000000
0.035313 -0.009747 0.001266 0.000000
0.035537 0.025078 -0.003867 0.000000
0.007830 0.002826 0.010955 0.000000
-0.006865 -0.028625 0.001901 0.000000
0.012739 -0.028167 -0.002444 0.000000
0.020877 0.006758 0.010693 0.000000
-0.021859 0.018942 0.010903 0.000000
0.034745 -0.021669 0.006614 0.000000
0.035181 -0.009355 0.002202 0.000000
0.035412 0.024021 -0.002624 0.000000
0.035262 0.007454 -0.001021 0.000000
0.035027 0.014183 0.006304 0.000000
0.015314 -0.028314 -0.007274 0.000000
0.035330 0.013143 0.002792 0.000000
0.032665 0.005232 0.010122 0.000000
0.034499 -0.026552 -0.000875 0.000000
0.000975 -0.028582 -0.009394 0.000000
0.034103 0.026807 0.008757 0.000000
0.035267 0.021823 0.002002 0.000000
0.033966 -0.000898 -0.009995 0.000000
0.034856 -0.006868 0.007337 0.000000
0.021759 -0.028335 -0.008456 0.000000
0.031175 0.003522 0.010327 0.000000
0.035331 0.016979 -0.002562 0.000000
-0.004776 -0.028543 -0.000560 0.000000
0.025741 -0.028083 0.000025 0.000000
-0.023419 -0.028774 -0.005346 0.000000
0.023386 0.003584 0.010663 0.000000
0.035230 -0.020703 0.002559 0.000000
0.035308 0.011407 -0.002185 0.000000
-0.000914 -0.028565 0.008107 0.000000
0.034111 0.019725 -0.007329 0.000000
0.035254 -0.000300 0.003305 0.000000
0.012051 -0.028270 0.004979 0.000000
0.035125 0.018024 0.004162 0.000000
0.034914 0.025942 0.005673 0.000000
0.033097 0.009586 0.010044 0.000000
-0.004235 -0.028622 0.008521 0.000000
0.027120 -0.027939 0.009300 0.000000
0.034971 0.019953 0.005467 0.000000
-0.019280 -0.028842 0.004055 0.000000
0.035310 -0.021214 -0.001280 0.000000
0.032979 0.026890 0.010336 0.000000
0.004939 -0.027843 0.010151 0.000000
0.010534 -0.028330 0.006918 0.000000
0.014735 0.011627 0.010956 0.000000
0.035234 0.013544 0.004828 0.000000
0.034446 -0.022227 -0.008029 0.000000
0.035324 0.010479 0.004242 0.000000
0.023577 0.010981 0.010696 0.000000
0.034312 -0.001518 -0.007292 0.000000
0.018688 -0.028138 -0.002702 0.000000
0.034269 -0.028055 -0.010600 0.000000
0.034024 0.019787 0.009182 0.000000
-0.012719 0.003861 0.010915 0.000000
0.030286 0.027954 0.010683 0.000000
0.011213 -0.000694 0.010990 0.000000
0.035320 -0.023427 0.001546 0.000000
0.034464 0.004945 -0.005834 0.000000
-0.003609 0.010737 0.011246 0.000000
0.019168 0.025479 0.011346 0.000000
0.035097 -0.006324 0.005247 0.000000
